# .PCD v0.7 - Point Cloud Data file format
VERSION 0.7
FIELDS x y z
SIZE 4 4 4
TYPE F F F
COUNT 1 1 1
WIDTH 1666
HEIGHT 1
VIEWPOINT 0 0 0 1 0 0 0
POINTS 1666
DATA ascii
-57.375 -51.498402 18.375
-57.525002 -51.498402 18.3312
-57.674999 -51.498402 18.2728
-57.825001 -51.498402 18.2071
-57.974998 -51.498402 18.302
-58.125 -51.498402 18.3312
-58.275002 -51.498402 18.338499
56.174999 -50.562061 17.396799
56.025002 -50.562061 17.396799
55.875 -50.562061 17.374901
55.724998 -50.562061 17.3311
55.575001 -50.562061 17.3092
55.424999 -50.562061 17.3092
55.275002 -50.562061 17.3165
55.125 -50.562061 17.2873
54.974998 -50.562061 17.199699
54.825001 -50.562061 17.2216
54.674999 -50.562061 17.258101
54.525002 -50.562061 17.228901
54.375 -50.562061 17.2216
54.224998 -50.562061 17.228901
54.075001 -50.562061 17.258101
53.924999 -50.562061 17.199699
53.775002 -50.562061 17.1705
53.625 -50.562061 17.1486
53.474998 -50.562061 17.126699
53.325001 -50.562061 17.1194
53.174999 -50.562061 17.0975
53.025002 -50.562061 17.0683
52.875 -50.562061 17.0975
52.724998 -50.562061 17.0902
52.575001 -50.562061 17.0756
52.424999 -50.562061 17.0975
52.275002 -50.562061 17.0683
52.125 -50.562061 17.0464
51.974998 -50.562061 17.031799
51.825001 -50.562061 16.9953
51.674999 -50.562061 17.009899
51.525002 -50.562061 17.009899
51.375 -50.562061 16.966101
51.224998 -50.562061 16.944201
51.075001 -50.562061 16.936899
50.924999 -50.562061 16.936899
50.775002 -50.562061 16.915001
50.625 -50.562061 16.863899
50.474998 -50.562061 16.8493
50.325001 -50.562061 16.885799
50.174999 -50.562061 16.8493
50.025002 -50.562061 16.8493
49.875 -50.562061 16.863899
49.724998 -50.562061 16.863899
49.575001 -50.562061 16.8785
49.424999 -50.562061 16.893101
49.275002 -50.562061 16.9077
49.125 -50.562061 16.820101
48.974998 -50.562061 16.841999
48.825001 -50.562061 16.871201
48.674999 -50.562061 16.798201
48.525002 -50.562061 16.7617
48.375 -50.562061 16.747101
48.224998 -50.562061 16.739799
48.075001 -50.562061 16.739799
47.924999 -50.562061 16.7033
47.775002 -50.562061 16.674101
47.625 -50.562061 16.6595
47.474998 -50.562061 16.652201
47.325001 -50.562061 16.644899
47.174999 -50.562061 16.644899
47.025002 -50.562061 16.644899
46.875 -50.562061 16.6376
46.724998 -50.562061 16.622999
46.575001 -50.562061 16.630301
46.424999 -50.562061 16.5938
46.275002 -50.562061 16.579201
46.125 -50.562061 16.5646
45.974998 -50.562061 16.5427
45.825001 -50.562061 16.5427
45.674999 -50.562061 16.5354
45.525002 -50.562061 16.506201
45.375 -50.562061 16.506201
45.224998 -50.562061 16.476999
45.075001 -50.562061 16.455099
44.924999 -50.562061 16.498899
44.775002 -50.562061 16.5208
44.625 -50.562061 16.506201
44.474998 -50.562061 16.4186
44.325001 -50.562061 16.4186
44.174999 -50.562061 16.4259
44.025002 -50.562061 16.4259
43.875 -50.562061 16.4259
43.724998 -50.562061 16.4405
43.575001 -50.562061 16.4405
43.424999 -50.562061 16.3894
43.275002 -50.562061 16.382099
43.125 -50.562061 16.3456
42.974998 -50.562061 16.316401
42.825001 -50.562061 16.360201
42.674999 -50.562061 16.3675
42.525002 -50.562061 16.3675
42.375 -50.562061 16.3675
42.224998 -50.562061 16.330999
42.075001 -50.562061 16.316401
41.924999 -50.562061 16.330999
41.775002 -50.562061 16.330999
41.625 -50.562061 16.309099
41.474998 -50.562061 16.287201
41.325001 -50.562061 16.257999
41.174999 -50.562061 16.243401
41.025002 -50.562061 16.236099
40.875 -50.562061 16.2288
40.724998 -50.562061 16.1777
40.575001 -50.562061 16.163099
40.424999 -50.562061 16.170401
40.275002 -50.562061 16.1996
40.125 -50.562061 16.2069
39.974998 -50.562061 16.192301
39.825001 -50.562061 16.1558
39.674999 -50.562061 16.1558
39.525002 -50.562061 16.1558
39.375 -50.562061 16.1485
39.224998 -50.562061 16.1558
39.075001 -50.562061 16.1485
38.924999 -50.562061 16.1339
38.775002 -50.562061 16.119301
38.625 -50.562061 16.141199
38.474998 -50.562061 16.1339
38.325001 -50.562061 16.112
38.174999 -50.562061 16.141199
38.025002 -50.562061 16.097401
37.875 -50.562061 16.0536
37.724998 -50.562061 16.0317
37.575001 -50.562061 16.002501
37.424999 -50.562061 16.017099
37.275002 -50.562061 16.0317
37.125 -50.562061 15.9952
36.974998 -50.562061 15.9879
36.825001 -50.562061 15.9733
36.674999 -50.562061 15.9587
36.525002 -50.562061 15.9222
36.375 -50.562061 15.9514
36.224998 -50.562061 15.9879
36.075001 -50.562061 15.9587
35.924999 -50.562061 15.9076
35.775002 -50.562061 15.8857
35.625 -50.562061 15.8857
35.474998 -50.562061 15.9003
35.325001 -50.562061 15.893
35.174999 -50.562061 15.8857
35.025002 -50.562061 15.9149
34.875 -50.562061 15.9222
34.724998 -50.562061 15.9222
34.575001 -50.562061 15.9076
34.424999 -50.562061 15.9003
34.275002 -50.562061 15.8711
34.125 -50.562061 15.8565
33.974998 -50.562061 15.893
33.825001 -50.562061 15.893
33.674999 -50.562061 15.8565
33.525002 -50.562061 15.82
33.375 -50.562061 15.8346
33.224998 -50.562061 15.8492
33.075001 -50.562061 15.8565
32.924999 -50.562061 15.8565
32.775002 -50.562061 15.8419
32.625 -50.562061 15.8273
32.474998 -50.562061 15.82
32.325001 -50.562061 15.8346
32.174999 -50.562061 15.7981
32.025002 -50.562061 15.7543
31.875 -50.562061 15.7543
31.725 -50.562061 15.7543
31.575001 -50.562061 15.747
31.424999 -50.562061 15.7178
31.275 -50.562061 15.7835
31.125 -50.562061 15.7616
30.975 -50.562061 15.7032
30.825001 -50.562061 15.7324
30.674999 -50.562061 15.7543
30.525 -50.562061 15.7616
30.375 -50.562061 15.7324
30.225 -50.562061 15.7397
30.075001 -50.562061 15.7324
29.924999 -50.562061 15.7032
29.775 -50.562061 15.7324
29.625 -50.562061 15.6959
29.475 -50.562061 15.6667
29.325001 -50.562061 15.7324
29.174999 -50.562061 15.7105
29.025 -50.562061 15.6667
28.875 -50.562061 15.6375
28.725 -50.562061 15.7105
28.575001 -50.562061 15.7178
28.424999 -50.562061 15.6959
28.275 -50.562061 15.6667
28.125 -50.562061 15.674
27.975 -50.562061 15.6813
27.825001 -50.562061 15.6594
27.674999 -50.562061 15.6594
27.525 -50.562061 15.6302
27.375 -50.562061 15.5864
27.225 -50.562061 15.5864
27.075001 -50.562061 15.601
26.924999 -50.562061 15.5937
26.775 -50.562061 15.5134
26.625 -50.562061 15.5645
26.475 -50.562061 15.5864
26.325001 -50.562061 15.5645
26.174999 -50.562061 15.5572
26.025 -50.562061 15.5572
25.875 -50.562061 15.5791
25.725 -50.562061 15.6156
25.575001 -50.562061 15.601
25.424999 -50.562061 15.6229
25.275 -50.562061 15.7032
25.125 -50.562061 15.6375
24.975 -50.562061 15.601
24.825001 -50.562061 15.5718
24.674999 -50.562061 15.5718
24.525 -50.562061 15.5572
24.375 -50.562061 15.5499
24.225 -50.562061 15.5791
24.075001 -50.562061 15.5353
23.924999 -50.562061 15.5061
23.775 -50.562061 15.4915
23.625 -50.562061 15.4915
23.475 -50.562061 15.528
23.325001 -50.562061 15.5572
23.174999 -50.562061 15.4915
23.025 -50.562061 15.5134
22.875 -50.562061 15.5207
22.725 -50.562061 15.5061
22.575001 -50.562061 15.4769
22.424999 -50.562061 15.4988
22.275 -50.562061 15.5426
22.125 -50.562061 15.5499
21.975 -50.562061 15.5353
21.825001 -50.562061 15.5061
21.674999 -50.562061 15.4769
21.525 -50.562061 15.4623
21.375 -50.562061 15.4769
21.225 -50.562061 15.5207
21.075001 -50.562061 15.5499
20.924999 -50.562061 15.4915
20.775 -50.562061 15.4404
20.625 -50.562061 15.4623
20.475 -50.562061 15.4769
20.325001 -50.562061 15.4842
20.174999 -50.562061 15.4769
20.025 -50.562061 15.4769
19.875 -50.562061 15.4404
19.725 -50.562061 15.4185
19.575001 -50.562061 15.4477
19.424999 -50.562061 15.4477
19.275 -50.562061 15.4258
19.125 -50.562061 15.3893
18.975 -50.562061 15.4477
18.825001 -50.562061 15.4769
18.674999 -50.562061 15.4769
18.525 -50.562061 15.4331
18.375 -50.562061 15.4258
18.225 -50.562061 15.4404
18.075001 -50.562061 15.4623
17.924999 -50.562061 15.4696
17.775 -50.562061 15.4477
17.625 -50.562061 15.4039
17.475 -50.562061 15.3601
17.325001 -50.562061 15.3893
17.174999 -50.562061 15.4258
17.025 -50.562061 15.3966
16.875 -50.562061 15.3966
16.725 -50.562061 15.4112
16.575001 -50.562061 15.3966
16.424999 -50.562061 15.3309
16.275 -50.562061 15.2944
16.125 -50.562061 15.2798
15.975 -50.562061 15.3309
15.825 -50.562061 15.3966
15.675 -50.562061 15.4112
15.525 -50.562061 15.3309
15.375 -50.562061 15.3966
15.225 -50.562061 15.4112
15.075 -50.562061 15.3747
14.925 -50.562061 15.3382
14.775 -50.562061 15.3674
14.625 -50.562061 15.4185
14.475 -50.562061 15.4404
14.325 -50.562061 15.4039
14.175 -50.562061 15.3528
14.025 -50.562061 15.309
13.875 -50.562061 15.3236
13.725 -50.562061 15.3382
13.575 -50.562061 15.3601
13.425 -50.562061 15.3309
13.275 -50.562061 15.3528
13.125 -50.562061 15.3674
12.975 -50.562061 15.3236
12.825 -50.562061 15.3528
12.675 -50.562061 15.3455
12.525 -50.562061 15.2944
12.375 -50.562061 15.3382
12.225 -50.562061 15.3528
12.075 -50.562061 15.3455
11.925 -50.562061 15.3236
11.775 -50.562061 15.309
11.625 -50.562061 15.3017
11.475 -50.562061 15.3017
11.325 -50.562061 15.309
11.175 -50.562061 15.3455
11.025 -50.562061 15.3747
10.875 -50.562061 15.3309
10.725 -50.562061 15.3455
10.575 -50.562061 15.382
10.425 -50.562061 15.4258
10.275 -50.562061 15.4185
10.125 -50.562061 15.3528
9.9750004 -50.562061 15.2652
9.8249998 -50.562061 15.3017
9.6750002 -50.562061 15.3309
9.5249996 -50.562061 15.3601
9.375 -50.562061 15.4258
9.2250004 -50.562061 15.3601
9.0749998 -50.562061 15.309
8.9250002 -50.562061 15.309
8.7749996 -50.562061 15.3674
8.625 -50.562061 15.4185
8.4750004 -50.562061 15.455
8.3249998 -50.562061 15.4039
8.1750002 -50.562061 15.382
8.0249996 -50.562061 15.3674
7.875 -50.562061 15.3674
7.7249999 -50.562061 15.3747
7.5749998 -50.562061 15.3966
7.4250002 -50.562061 15.4258
7.2750001 -50.562061 15.382
7.125 -50.562061 15.382
6.9749999 -50.562061 15.4039
6.8249998 -50.562061 15.4258
6.6750002 -50.562061 15.4258
6.5250001 -50.562061 15.4185
6.375 -50.562061 15.4112
6.2249999 -50.562061 15.3966
6.0749998 -50.562061 15.3893
5.9250002 -50.562061 15.382
5.7750001 -50.562061 15.3455
5.625 -50.562061 15.3528
5.4749999 -50.562061 15.3674
5.3249998 -50.562061 15.3455
5.1750002 -50.562061 15.3747
5.0250001 -50.562061 15.3966
4.875 -50.562061 15.4112
4.7249999 -50.562061 15.3893
4.5749998 -50.562061 15.4039
4.4250002 -50.562061 15.4185
4.2750001 -50.562061 15.3601
4.125 -50.562061 15.3455
3.9749999 -50.562061 15.3236
3.825 -50.562061 15.2944
3.675 -50.562061 15.3601
3.5250001 -50.562061 15.3966
3.375 -50.562061 15.4258
3.2249999 -50.562061 15.4258
3.075 -50.562061 15.3747
2.925 -50.562061 15.3455
2.7750001 -50.562061 15.4039
2.625 -50.562061 15.4039
2.4749999 -50.562061 15.4258
2.325 -50.562061 15.4477
2.175 -50.562061 15.3601
2.0250001 -50.562061 15.3601
1.875 -50.562061 15.4112
1.725 -50.562061 15.455
1.575 -50.562061 15.4477
1.425 -50.562061 15.4331
1.275 -50.562061 15.4404
1.125 -50.562061 15.3893
0.97500002 -50.562061 15.4112
0.82499999 -50.562061 15.4623
0.67500001 -50.562061 15.4331
0.52499998 -50.562061 15.4331
0.375 -50.562061 15.4404
0.22499999 -50.562061 15.382
0.075000003 -50.562061 15.455
-0.075000003 -50.562061 15.4769
-0.22499999 -50.562061 15.4404
-0.375 -50.562061 15.4039
-0.52499998 -50.562061 15.3966
-0.67500001 -50.562061 15.4112
-0.82499999 -50.562061 15.4331
-0.97500002 -50.562061 15.4404
-1.125 -50.562061 15.455
-1.275 -50.562061 15.4842
-1.425 -50.562061 15.4988
-1.575 -50.562061 15.4988
-1.725 -50.562061 15.4769
-1.875 -50.562061 15.4988
-2.0250001 -50.562061 15.4623
-2.175 -50.562061 15.4258
-2.325 -50.562061 15.4404
-2.4749999 -50.562061 15.4769
-2.625 -50.562061 15.528
-2.7750001 -50.562061 15.5937
-2.925 -50.562061 15.4842
-3.075 -50.562061 15.4769
-3.2249999 -50.562061 15.5061
-3.375 -50.562061 15.528
-3.5250001 -50.562061 15.4915
-3.675 -50.562061 15.4623
-3.825 -50.562061 15.4477
-3.9749999 -50.562061 15.5572
-4.125 -50.562061 15.5864
-4.2750001 -50.562061 15.5499
-4.4250002 -50.562061 15.4769
-4.5749998 -50.562061 15.4842
-4.7249999 -50.562061 15.5207
-4.875 -50.562061 15.5718
-5.0250001 -50.562061 15.5353
-5.1750002 -50.562061 15.5207
-5.3249998 -50.562061 15.5499
-5.4749999 -50.562061 15.5499
-5.625 -50.562061 15.5791
-5.7750001 -50.562061 15.601
-5.9250002 -50.562061 15.5134
-6.0749998 -50.562061 15.5572
-6.2249999 -50.562061 15.601
-6.375 -50.562061 15.5791
-6.5250001 -50.562061 15.5718
-6.6750002 -50.562061 15.5572
-6.8249998 -50.562061 15.5426
-6.9749999 -50.562061 15.5718
-7.125 -50.562061 15.5791
-7.2750001 -50.562061 15.5864
-7.4250002 -50.562061 15.6083
-7.5749998 -50.562061 15.601
-7.7249999 -50.562061 15.6156
-7.875 -50.562061 15.6594
-8.0249996 -50.562061 15.5718
-8.1750002 -50.562061 15.5718
-8.3249998 -50.562061 15.6156
-8.4750004 -50.562061 15.6521
-8.625 -50.562061 15.6448
-8.7749996 -50.562061 15.6302
-8.9250002 -50.562061 15.6229
-9.0749998 -50.562061 15.6156
-9.2250004 -50.562061 15.6448
-9.375 -50.562061 15.7032
-9.5249996 -50.562061 15.7032
-9.6750002 -50.562061 15.6594
-9.8249998 -50.562061 15.601
-9.9750004 -50.562061 15.5645
-10.125 -50.562061 15.601
-10.275 -50.562061 15.6375
-10.425 -50.562061 15.6594
-10.575 -50.562061 15.6594
-10.725 -50.562061 15.6375
-10.875 -50.562061 15.6229
-11.025 -50.562061 15.674
-11.175 -50.562061 15.674
-11.325 -50.562061 15.6667
-11.475 -50.562061 15.7032
-11.625 -50.562061 15.6959
-11.775 -50.562061 15.7105
-11.925 -50.562061 15.747
-12.075 -50.562061 15.747
-12.225 -50.562061 15.7324
-12.375 -50.562061 15.7324
-12.525 -50.562061 15.747
-12.675 -50.562061 15.6813
-12.825 -50.562061 15.7178
-12.975 -50.562061 15.8492
-13.125 -50.562061 15.8127
-13.275 -50.562061 15.7689
-13.425 -50.562061 15.7324
-13.575 -50.562061 15.6959
-13.725 -50.562061 15.7251
-13.875 -50.562061 15.7397
-14.025 -50.562061 15.7032
-14.175 -50.562061 15.7178
-14.325 -50.562061 15.7251
-14.475 -50.562061 15.7178
-14.625 -50.562061 15.8054
-14.775 -50.562061 15.8492
-14.925 -50.562061 15.8419
-15.075 -50.562061 15.747
-15.225 -50.562061 15.7689
-15.375 -50.562061 15.8054
-15.525 -50.562061 15.8419
-15.675 -50.562061 15.8346
-15.825 -50.562061 15.7689
-15.975 -50.562061 15.7324
-16.125 -50.562061 15.82
-16.275 -50.562061 15.9076
-16.424999 -50.562061 15.9368
-16.575001 -50.562061 15.9003
-16.725 -50.562061 15.8638
-16.875 -50.562061 15.8857
-17.025 -50.562061 15.9222
-17.174999 -50.562061 15.8565
-17.325001 -50.562061 15.8857
-17.475 -50.562061 15.9076
-17.625 -50.562061 15.8419
-17.775 -50.562061 15.8565
-17.924999 -50.562061 15.8638
-18.075001 -50.562061 15.8784
-18.225 -50.562061 15.9222
-18.375 -50.562061 15.9222
-18.525 -50.562061 15.9222
-18.674999 -50.562061 15.9879
-18.825001 -50.562061 16.002501
-18.975 -50.562061 16.068199
-19.125 -50.562061 16.170401
-19.275 -50.562061 16.002501
-19.424999 -50.562061 15.9441
-19.575001 -50.562061 15.9441
-19.725 -50.562061 15.966
-19.875 -50.562061 16.024401
-20.025 -50.562061 16.039
-20.174999 -50.562061 15.9806
-20.325001 -50.562061 16.024401
-20.475 -50.562061 16.046301
-20.625 -50.562061 16.046301
-20.775 -50.562061 16.039
-20.924999 -50.562061 16.0755
-21.075001 -50.562061 16.1047
-21.225 -50.562061 16.039
-21.375 -50.562061 16.0828
-21.525 -50.562061 16.1047
-21.674999 -50.562061 16.0828
-21.825001 -50.562061 16.1266
-21.975 -50.562061 16.1339
-22.125 -50.562061 16.119301
-22.275 -50.562061 16.170401
-22.424999 -50.562061 16.184999
-22.575001 -50.562061 16.2069
-22.725 -50.562061 16.2288
-22.875 -50.562061 16.184999
-23.025 -50.562061 16.184999
-23.174999 -50.562061 16.214199
-23.325001 -50.562061 16.192301
-23.475 -50.562061 16.163099
-23.625 -50.562061 16.141199
-23.775 -50.562061 16.1558
-23.924999 -50.562061 16.119301
-24.075001 -50.562061 16.119301
-24.225 -50.562061 16.184999
-24.375 -50.562061 16.2507
-24.525 -50.562061 16.2507
-24.674999 -50.562061 16.2215
-24.825001 -50.562061 16.2215
-24.975 -50.562061 16.2507
-25.125 -50.562061 16.2945
-25.275 -50.562061 16.338301
-25.424999 -50.562061 16.330999
-25.575001 -50.562061 16.3237
-25.725 -50.562061 16.309099
-25.875 -50.562061 16.309099
-26.025 -50.562061 16.3237
-26.174999 -50.562061 16.316401
-26.325001 -50.562061 16.2507
-26.475 -50.562061 16.3018
-26.625 -50.562061 16.3237
-26.775 -50.562061 16.330999
-26.924999 -50.562061 16.3529
-27.075001 -50.562061 16.3675
-27.225 -50.562061 16.3894
-27.375 -50.562061 16.411301
-27.525 -50.562061 16.403999
-27.674999 -50.562061 16.3894
-27.825001 -50.562061 16.403999
-27.975 -50.562061 16.4259
-28.125 -50.562061 16.4259
-28.275 -50.562061 16.3967
-28.424999 -50.562061 16.360201
-28.575001 -50.562061 16.360201
-28.725 -50.562061 16.3967
-28.875 -50.562061 16.455099
-29.025 -50.562061 16.455099
-29.174999 -50.562061 16.476999
-29.325001 -50.562061 16.5135
-29.475 -50.562061 16.455099
-29.625 -50.562061 16.476999
-29.775 -50.562061 16.498899
-29.924999 -50.562061 16.484301
-30.075001 -50.562061 16.476999
-30.225 -50.562061 16.4624
-30.375 -50.562061 16.4478
-30.525 -50.562061 16.506201
-30.674999 -50.562061 16.498899
-30.825001 -50.562061 16.4624
-30.975 -50.562061 16.4624
-31.125 -50.562061 16.476999
-31.275 -50.562061 16.4916
-31.424999 -50.562061 16.506201
-31.575001 -50.562061 16.549999
-31.725 -50.562061 16.5646
-31.875 -50.562061 16.557301
-32.025002 -50.562061 16.5135
-32.174999 -50.562061 16.571899
-32.325001 -50.562061 16.601101
-32.474998 -50.562061 16.557301
-32.625 -50.562061 16.6157
-32.775002 -50.562061 16.674101
-32.924999 -50.562061 16.717899
-33.075001 -50.562061 16.725201
-33.224998 -50.562061 16.7033
-33.375 -50.562061 16.674101
-33.525002 -50.562061 16.6376
-33.674999 -50.562061 16.6595
-33.825001 -50.562061 16.674101
-33.974998 -50.562061 16.6814
-34.125 -50.562061 16.739799
-34.275002 -50.562061 16.7033
-34.424999 -50.562061 16.6668
-34.575001 -50.562061 16.6887
-34.724998 -50.562061 16.7106
-34.875 -50.562061 16.7325
-35.025002 -50.562061 16.7617
-35.174999 -50.562061 16.790899
-35.325001 -50.562061 16.8274
-35.474998 -50.562061 16.841999
-35.625 -50.562061 16.790899
-35.775002 -50.562061 16.7763
-35.924999 -50.562061 16.790899
-36.075001 -50.562061 16.863899
-36.224998 -50.562061 16.812799
-36.375 -50.562061 16.812799
-36.525002 -50.562061 16.8493
-36.674999 -50.562061 16.8493
-36.825001 -50.562061 16.863899
-36.974998 -50.562061 16.893101
-37.125 -50.562061 16.9223
-37.275002 -50.562061 16.936899
-37.424999 -50.562061 16.936899
-37.575001 -50.562061 16.915001
-37.724998 -50.562061 16.9004
-37.875 -50.562061 16.915001
-38.025002 -50.562061 16.9296
-38.174999 -50.562061 16.9004
-38.325001 -50.562061 16.936899
-38.474998 -50.562061 16.958799
-38.625 -50.562061 16.966101
-38.775002 -50.562061 16.9515
-38.924999 -50.562061 16.9734
-39.075001 -50.562061 17.009899
-39.224998 -50.562061 17.039101
-39.375 -50.562061 17.053699
-39.525002 -50.562061 17.053699
-39.674999 -50.562061 17.009899
-39.825001 -50.562061 17.031799
-39.974998 -50.562061 17.082899
-40.125 -50.562061 17.126699
-40.275002 -50.562061 17.126699
-40.424999 -50.562061 17.0902
-40.575001 -50.562061 17.0464
-40.724998 -50.562061 17.009899
-40.875 -50.562061 17.061001
-41.025002 -50.562061 17.0902
-41.174999 -50.562061 17.104799
-41.325001 -50.562061 17.1194
-41.474998 -50.562061 17.1632
-41.625 -50.562061 17.185101
-41.775002 -50.562061 17.1632
-41.924999 -50.562061 17.1705
-42.075001 -50.562061 17.1486
-42.224998 -50.562061 17.104799
-42.375 -50.562061 17.1413
-42.525002 -50.562061 17.185101
-42.674999 -50.562061 17.2143
-42.825001 -50.562061 17.199699
-42.974998 -50.562061 17.2362
-43.125 -50.562061 17.258101
-43.275002 -50.562061 17.2435
-43.424999 -50.562061 17.199699
-43.575001 -50.562061 17.207001
-43.724998 -50.562061 17.2362
-43.875 -50.562061 17.2143
-44.025002 -50.562061 17.2946
-44.174999 -50.562061 17.323799
-44.325001 -50.562061 17.258101
-44.474998 -50.562061 17.2873
-44.625 -50.562061 17.3165
-44.775002 -50.562061 17.353001
-44.924999 -50.562061 17.4114
-45.075001 -50.562061 17.374901
-45.224998 -50.562061 17.3311
-45.375 -50.562061 17.3311
-45.525002 -50.562061 17.3384
-45.674999 -50.562061 17.353001
-45.825001 -50.562061 17.367599
-45.974998 -50.562061 17.4041
-46.125 -50.562061 17.418699
-46.275002 -50.562061 17.426001
-46.424999 -50.562061 17.4625
-46.575001 -50.562061 17.426001
-46.724998 -50.562061 17.396799
-46.875 -50.562061 17.418699
-47.025002 -50.562061 17.469801
-47.174999 -50.562061 17.4844
-47.325001 -50.562061 17.4771
-47.474998 -50.562061 17.572001
-47.625 -50.562061 17.5574
-47.775002 -50.562061 17.513599
-47.924999 -50.562061 17.491699
-48.075001 -50.562061 17.499001
-48.224998 -50.562061 17.513599
-48.375 -50.562061 17.5063
-48.525002 -50.562061 17.5355
-48.674999 -50.562061 17.5793
-48.825001 -50.562061 17.615801
-48.974998 -50.562061 17.6085
-49.125 -50.562061 17.593901
-49.275002 -50.562061 17.6012
-49.424999 -50.562061 17.637699
-49.575001 -50.562061 17.637699
-49.724998 -50.562061 17.666901
-49.875 -50.562061 17.7034
-50.025002 -50.562061 17.681499
-50.174999 -50.562061 17.6742
-50.325001 -50.562061 17.681499
-50.474998 -50.562061 17.710699
-50.625 -50.562061 17.754499
-50.775002 -50.562061 17.7764
-50.924999 -50.562061 17.7983
-51.075001 -50.562061 17.7983
-51.224998 -50.562061 17.7983
-51.375 -50.562061 17.791
-51.525002 -50.562061 17.783701
-51.674999 -50.562061 17.7764
-51.825001 -50.562061 17.7983
-51.974998 -50.562061 17.8421
-52.125 -50.562061 17.827499
-52.275002 -50.562061 17.864
-52.424999 -50.562061 17.907801
-52.575001 -50.562061 17.9443
-52.724998 -50.562061 17.9224
-52.875 -50.562061 17.9443
-53.025002 -50.562061 17.995399
-53.174999 -50.562061 17.9589
-53.325001 -50.562061 17.951599
-53.474998 -50.562061 17.9589
-53.625 -50.562061 17.995399
-53.775002 -50.562061 17.937
-53.924999 -50.562061 17.9224
-54.075001 -50.562061 17.951599
-54.224998 -50.562061 17.9881
-54.375 -50.562061 18.002701
-54.525002 -50.562061 18.024599
-54.674999 -50.562061 18.083
-54.825001 -50.562061 18.0903
-54.974998 -50.562061 18.1049
-55.125 -50.562061 18.119499
-55.275002 -50.562061 18.1122
-55.424999 -50.562061 18.1122
-55.575001 -50.562061 18.1341
-55.724998 -50.562061 18.1779
-55.875 -50.562061 18.1341
-56.025002 -50.562061 18.1341
-56.174999 -50.562061 18.1852
-56.325001 -50.562061 18.221701
-56.474998 -50.562061 18.265499
-56.625 -50.562061 18.2801
-56.775002 -50.562061 18.229
-56.924999 -50.562061 18.294701
-57.075001 -50.562061 18.294701
-57.224998 -50.562061 18.2728
-57.375 -50.562061 18.309299
-57.525002 -50.562061 18.2728
-57.674999 -50.562061 18.2801
-57.825001 -50.562061 18.360399
-57.974998 -50.562061 18.3239
-58.125 -50.562061 18.294701
-58.275002 -50.562061 18.2801
56.174999 -49.625721 17.323799
56.025002 -49.625721 17.301901
55.875 -49.625721 17.272699
55.724998 -49.625721 17.250799
55.575001 -49.625721 17.228901
55.424999 -49.625721 17.2362
55.275002 -49.625721 17.228901
55.125 -49.625721 17.177799
54.974998 -49.625721 17.185101
54.825001 -49.625721 17.1632
54.674999 -49.625721 17.1413
54.525002 -49.625721 17.177799
54.375 -49.625721 17.1705
54.224998 -49.625721 17.1486
54.075001 -49.625721 17.112101
53.924999 -49.625721 17.112101
53.775002 -49.625721 17.126699
53.625 -49.625721 17.134001
53.474998 -49.625721 17.112101
53.325001 -49.625721 17.112101
53.174999 -49.625721 17.104799
53.025002 -49.625721 17.061001
52.875 -49.625721 17.0245
52.724998 -49.625721 17.0172
52.575001 -49.625721 17.0464
52.424999 -49.625721 17.0975
52.275002 -49.625721 17.0464
52.125 -49.625721 17.0172
51.974998 -49.625721 17.0026
51.825001 -49.625721 17.039101
51.674999 -49.625721 17.039101
51.525002 -49.625721 17.0245
51.375 -49.625721 17.039101
51.224998 -49.625721 17.0464
51.075001 -49.625721 17.0172
50.924999 -49.625721 16.9734
50.775002 -49.625721 16.944201
50.625 -49.625721 16.9004
50.474998 -49.625721 16.871201
50.325001 -49.625721 16.871201
50.174999 -49.625721 16.863899
50.025002 -49.625721 16.863899
49.875 -49.625721 16.8785
49.724998 -49.625721 16.885799
49.575001 -49.625721 16.863899
49.424999 -49.625721 16.841999
49.275002 -49.625721 16.8274
49.125 -49.625721 16.7544
48.974998 -49.625721 16.7763
48.825001 -49.625721 16.8055
48.674999 -49.625721 16.7836
48.525002 -49.625721 16.798201
48.375 -49.625721 16.790899
48.224998 -49.625721 16.7617
48.075001 -49.625721 16.7325
47.924999 -49.625721 16.7033
47.775002 -49.625721 16.674101
47.625 -49.625721 16.6595
47.474998 -49.625721 16.644899
47.325001 -49.625721 16.622999
47.174999 -49.625721 16.601101
47.025002 -49.625721 16.601101
46.875 -49.625721 16.579201
46.724998 -49.625721 16.5646
46.575001 -49.625721 16.5865
46.424999 -49.625721 16.5865
46.275002 -49.625721 16.5646
46.125 -49.625721 16.5427
45.974998 -49.625721 16.557301
45.825001 -49.625721 16.498899
45.674999 -49.625721 16.476999
45.525002 -49.625721 16.506201
45.375 -49.625721 16.484301
45.224998 -49.625721 16.484301
45.075001 -49.625721 16.484301
44.924999 -49.625721 16.403999
44.775002 -49.625721 16.3967
44.625 -49.625721 16.433201
44.474998 -49.625721 16.4916
44.325001 -49.625721 16.4697
44.174999 -49.625721 16.411301
44.025002 -49.625721 16.360201
43.875 -49.625721 16.3894
43.724998 -49.625721 16.3894
43.575001 -49.625721 16.382099
43.424999 -49.625721 16.403999
43.275002 -49.625721 16.360201
43.125 -49.625721 16.360201
42.974998 -49.625721 16.3894
42.825001 -49.625721 16.3456
42.674999 -49.625721 16.316401
42.525002 -49.625721 16.3018
42.375 -49.625721 16.2945
42.224998 -49.625721 16.2945
42.075001 -49.625721 16.3018
41.924999 -49.625721 16.316401
41.775002 -49.625721 16.316401
41.625 -49.625721 16.3237
41.474998 -49.625721 16.3018
41.325001 -49.625721 16.2069
41.174999 -49.625721 16.184999
41.025002 -49.625721 16.170401
40.875 -49.625721 16.1558
40.724998 -49.625721 16.1266
40.575001 -49.625721 16.1558
40.424999 -49.625721 16.184999
40.275002 -49.625721 16.1558
40.125 -49.625721 16.1485
39.974998 -49.625721 16.1339
39.825001 -49.625721 16.112
39.674999 -49.625721 16.0755
39.525002 -49.625721 16.1339
39.375 -49.625721 16.192301
39.224998 -49.625721 16.1047
39.075001 -49.625721 16.119301
38.924999 -49.625721 16.112
38.775002 -49.625721 16.0609
38.625 -49.625721 16.0536
38.474998 -49.625721 16.039
38.325001 -49.625721 16.0317
38.174999 -49.625721 16.039
38.025002 -49.625721 16.046301
37.875 -49.625721 16.039
37.724998 -49.625721 16.002501
37.575001 -49.625721 15.9733
37.424999 -49.625721 15.9295
37.275002 -49.625721 15.9076
37.125 -49.625721 15.9514
36.974998 -49.625721 15.9441
36.825001 -49.625721 15.966
36.674999 -49.625721 16.017099
36.525002 -49.625721 15.966
36.375 -49.625721 15.9368
36.224998 -49.625721 15.9149
36.075001 -49.625721 15.9222
35.924999 -49.625721 15.9222
35.775002 -49.625721 15.9003
35.625 -49.625721 15.8711
35.474998 -49.625721 15.8638
35.325001 -49.625721 15.8419
35.174999 -49.625721 15.8346
35.025002 -49.625721 15.8857
34.875 -49.625721 15.9003
34.724998 -49.625721 15.9003
34.575001 -49.625721 15.8711
34.424999 -49.625721 15.8784
34.275002 -49.625721 15.8711
34.125 -49.625721 15.8492
33.974998 -49.625721 15.8711
33.825001 -49.625721 15.8273
33.674999 -49.625721 15.7981
33.525002 -49.625721 15.7908
33.375 -49.625721 15.7908
33.224998 -49.625721 15.7835
33.075001 -49.625721 15.7835
32.924999 -49.625721 15.7689
32.775002 -49.625721 15.8127
32.625 -49.625721 15.8054
32.474998 -49.625721 15.7397
32.325001 -49.625721 15.747
32.174999 -49.625721 15.7616
32.025002 -49.625721 15.7689
31.875 -49.625721 15.7616
31.725 -49.625721 15.7324
31.575001 -49.625721 15.7251
31.424999 -49.625721 15.7543
31.275 -49.625721 15.7689
31.125 -49.625721 15.7616
30.975 -49.625721 15.7397
30.825001 -49.625721 15.747
30.674999 -49.625721 15.747
30.525 -49.625721 15.7251
30.375 -49.625721 15.6886
30.225 -49.625721 15.674
30.075001 -49.625721 15.6813
29.924999 -49.625721 15.7105
29.775 -49.625721 15.6959
29.625 -49.625721 15.6667
29.475 -49.625721 15.6448
29.325001 -49.625721 15.6594
29.174999 -49.625721 15.6302
29.025 -49.625721 15.6375
28.875 -49.625721 15.6959
28.725 -49.625721 15.6667
28.575001 -49.625721 15.6448
28.424999 -49.625721 15.6375
28.275 -49.625721 15.6375
28.125 -49.625721 15.5791
27.975 -49.625721 15.5499
27.825001 -49.625721 15.5645
27.674999 -49.625721 15.5645
27.525 -49.625721 15.5718
27.375 -49.625721 15.601
27.225 -49.625721 15.5864
27.075001 -49.625721 15.5572
26.924999 -49.625721 15.5426
26.775 -49.625721 15.5353
26.625 -49.625721 15.5207
26.475 -49.625721 15.528
26.325001 -49.625721 15.5499
26.174999 -49.625721 15.5426
26.025 -49.625721 15.5426
25.875 -49.625721 15.5426
25.725 -49.625721 15.5061
25.575001 -49.625721 15.528
25.424999 -49.625721 15.5353
25.275 -49.625721 15.5207
25.125 -49.625721 15.5718
24.975 -49.625721 15.5937
24.825001 -49.625721 15.5937
24.674999 -49.625721 15.5061
24.525 -49.625721 15.5134
24.375 -49.625721 15.528
24.225 -49.625721 15.528
24.075001 -49.625721 15.5134
23.924999 -49.625721 15.4988
23.775 -49.625721 15.4842
23.625 -49.625721 15.4915
23.475 -49.625721 15.5061
23.325001 -49.625721 15.4988
23.174999 -49.625721 15.4258
23.025 -49.625721 15.4842
22.875 -49.625721 15.4988
22.725 -49.625721 15.4623
22.575001 -49.625721 15.455
22.424999 -49.625721 15.455
22.275 -49.625721 15.4696
22.125 -49.625721 15.4915
21.975 -49.625721 15.4842
21.825001 -49.625721 15.4623
21.674999 -49.625721 15.4331
21.525 -49.625721 15.4623
21.375 -49.625721 15.4769
21.225 -49.625721 15.4842
21.075001 -49.625721 15.5353
20.924999 -49.625721 15.4842
20.775 -49.625721 15.4331
20.625 -49.625721 15.4404
20.475 -49.625721 15.4039
20.325001 -49.625721 15.3893
20.174999 -49.625721 15.4258
20.025 -49.625721 15.4696
19.875 -49.625721 15.4623
19.725 -49.625721 15.4331
19.575001 -49.625721 15.455
19.424999 -49.625721 15.4623
19.275 -49.625721 15.4623
19.125 -49.625721 15.4331
18.975 -49.625721 15.4258
18.825001 -49.625721 15.3966
18.674999 -49.625721 15.3747
18.525 -49.625721 15.4185
18.375 -49.625721 15.4185
18.225 -49.625721 15.4039
18.075001 -49.625721 15.4185
17.924999 -49.625721 15.4404
17.775 -49.625721 15.4404
17.625 -49.625721 15.4185
17.475 -49.625721 15.4039
17.325001 -49.625721 15.382
17.174999 -49.625721 15.3674
17.025 -49.625721 15.3528
16.875 -49.625721 15.3455
16.725 -49.625721 15.3455
16.575001 -49.625721 15.3528
16.424999 -49.625721 15.3747
16.275 -49.625721 15.382
16.125 -49.625721 15.3674
15.975 -49.625721 15.3674
15.825 -49.625721 15.3309
15.675 -49.625721 15.3236
15.525 -49.625721 15.382
15.375 -49.625721 15.3528
15.225 -49.625721 15.3382
15.075 -49.625721 15.3382
14.925 -49.625721 15.4185
14.775 -49.625721 15.382
14.625 -49.625721 15.3163
14.475 -49.625721 15.2871
14.325 -49.625721 15.3455
14.175 -49.625721 15.382
14.025 -49.625721 15.3528
13.875 -49.625721 15.3017
13.725 -49.625721 15.2944
13.575 -49.625721 15.309
13.425 -49.625721 15.3309
13.275 -49.625721 15.3455
13.125 -49.625721 15.3528
12.975 -49.625721 15.3309
12.825 -49.625721 15.3309
12.675 -49.625721 15.3528
12.525 -49.625721 15.3893
12.375 -49.625721 15.3601
12.225 -49.625721 15.3309
12.075 -49.625721 15.3163
11.925 -49.625721 15.3163
11.775 -49.625721 15.3382
11.625 -49.625721 15.3747
11.475 -49.625721 15.4258
11.325 -49.625721 15.3382
11.175 -49.625721 15.3309
11.025 -49.625721 15.3601
10.875 -49.625721 15.3236
10.725 -49.625721 15.3163
10.575 -49.625721 15.3236
10.425 -49.625721 15.3382
10.275 -49.625721 15.3747
10.125 -49.625721 15.3601
9.9750004 -49.625721 15.3163
9.8249998 -49.625721 15.3601
9.6750002 -49.625721 15.3601
9.5249996 -49.625721 15.3455
9.375 -49.625721 15.382
9.2250004 -49.625721 15.382
9.0749998 -49.625721 15.3601
8.9250002 -49.625721 15.3236
8.7749996 -49.625721 15.3236
8.625 -49.625721 15.3309
8.4750004 -49.625721 15.3236
8.3249998 -49.625721 15.3309
8.1750002 -49.625721 15.3747
8.0249996 -49.625721 15.382
7.875 -49.625721 15.309
7.7249999 -49.625721 15.3528
7.5749998 -49.625721 15.3528
7.4250002 -49.625721 15.3163
7.2750001 -49.625721 15.3747
7.125 -49.625721 15.3747
6.9749999 -49.625721 15.3528
6.8249998 -49.625721 15.3747
6.6750002 -49.625721 15.3382
6.5250001 -49.625721 15.3236
6.375 -49.625721 15.3674
6.2249999 -49.625721 15.382
6.0749998 -49.625721 15.3893
5.9250002 -49.625721 15.3966
5.7750001 -49.625721 15.3966
5.625 -49.625721 15.3528
5.4749999 -49.625721 15.3528
5.3249998 -49.625721 15.4185
5.1750002 -49.625721 15.4404
5.0250001 -49.625721 15.4039
4.875 -49.625721 15.3236
4.7249999 -49.625721 15.3528
4.5749998 -49.625721 15.3747
4.4250002 -49.625721 15.3966
4.2750001 -49.625721 15.3966
4.125 -49.625721 15.3893
3.9749999 -49.625721 15.3674
3.825 -49.625721 15.3309
3.675 -49.625721 15.3309
3.5250001 -49.625721 15.3309
3.375 -49.625721 15.3601
3.2249999 -49.625721 15.4185
3.075 -49.625721 15.4331
2.925 -49.625721 15.4039
2.7750001 -49.625721 15.2871
2.625 -49.625721 15.309
2.4749999 -49.625721 15.3309
2.325 -49.625721 15.3455
2.175 -49.625721 15.3455
2.0250001 -49.625721 15.3747
1.875 -49.625721 15.3966
1.725 -49.625721 15.3674
1.575 -49.625721 15.3601
1.425 -49.625721 15.3674
1.275 -49.625721 15.4112
1.125 -49.625721 15.382
0.97500002 -49.625721 15.3601
0.82499999 -49.625721 15.3455
0.67500001 -49.625721 15.3455
0.52499998 -49.625721 15.3528
0.375 -49.625721 15.3455
0.22499999 -49.625721 15.3601
0.075000003 -49.625721 15.3893
-0.075000003 -49.625721 15.4185
-0.22499999 -49.625721 15.455
-0.375 -49.625721 15.4915
-0.52499998 -49.625721 15.4842
-0.67500001 -49.625721 15.455
-0.82499999 -49.625721 15.4477
-0.97500002 -49.625721 15.455
-1.125 -49.625721 15.455
-1.275 -49.625721 15.4185
-1.425 -49.625721 15.4185
-1.575 -49.625721 15.4331
-1.725 -49.625721 15.4477
-1.875 -49.625721 15.4404
-2.0250001 -49.625721 15.4623
-2.175 -49.625721 15.4696
-2.325 -49.625721 15.4039
-2.4749999 -49.625721 15.3966
-2.625 -49.625721 15.4258
-2.7750001 -49.625721 15.4769
-2.925 -49.625721 15.4988
-3.075 -49.625721 15.455
-3.2249999 -49.625721 15.3966
-3.375 -49.625721 15.4039
-3.5250001 -49.625721 15.455
-3.675 -49.625721 15.4842
-3.825 -49.625721 15.4623
-3.9749999 -49.625721 15.4623
-4.125 -49.625721 15.4623
-4.2750001 -49.625721 15.4623
-4.4250002 -49.625721 15.4404
-4.5749998 -49.625721 15.4623
-4.7249999 -49.625721 15.4842
-4.875 -49.625721 15.455
-5.0250001 -49.625721 15.5499
-5.1750002 -49.625721 15.5718
-5.3249998 -49.625721 15.5207
-5.4749999 -49.625721 15.5718
-5.625 -49.625721 15.5499
-5.7750001 -49.625721 15.5061
-5.9250002 -49.625721 15.4769
-6.0749998 -49.625721 15.5134
-6.2249999 -49.625721 15.5426
-6.375 -49.625721 15.5061
-6.5250001 -49.625721 15.5207
-6.6750002 -49.625721 15.5499
-6.8249998 -49.625721 15.5718
-6.9749999 -49.625721 15.5061
-7.125 -49.625721 15.5572
-7.2750001 -49.625721 15.6156
-7.4250002 -49.625721 15.6156
-7.5749998 -49.625721 15.6156
-7.7249999 -49.625721 15.6229
-7.875 -49.625721 15.6229
-8.0249996 -49.625721 15.6229
-8.1750002 -49.625721 15.6302
-8.3249998 -49.625721 15.6229
-8.4750004 -49.625721 15.6229
-8.625 -49.625721 15.6083
-8.7749996 -49.625721 15.6229
-8.9250002 -49.625721 15.7032
-9.0749998 -49.625721 15.6375
-9.2250004 -49.625721 15.5791
-9.375 -49.625721 15.5499
-9.5249996 -49.625721 15.6083
-9.6750002 -49.625721 15.6521
-9.8249998 -49.625721 15.6813
-9.9750004 -49.625721 15.674
-10.125 -49.625721 15.6448
-10.275 -49.625721 15.6156
-10.425 -49.625721 15.5864
-10.575 -49.625721 15.601
-10.725 -49.625721 15.5937
-10.875 -49.625721 15.5791
-11.025 -49.625721 15.5791
-11.175 -49.625721 15.6667
-11.325 -49.625721 15.7324
-11.475 -49.625721 15.7251
-11.625 -49.625721 15.7105
-11.775 -49.625721 15.7105
-11.925 -49.625721 15.7397
-12.075 -49.625721 15.7543
-12.225 -49.625721 15.7616
-12.375 -49.625721 15.7689
-12.525 -49.625721 15.7835
-12.675 -49.625721 15.7616
-12.825 -49.625721 15.7616
-12.975 -49.625721 15.8054
-13.125 -49.625721 15.7762
-13.275 -49.625721 15.7324
-13.425 -49.625721 15.6959
-13.575 -49.625721 15.7105
-13.725 -49.625721 15.6886
-13.875 -49.625721 15.7178
-14.025 -49.625721 15.8273
-14.175 -49.625721 15.7616
-14.325 -49.625721 15.7543
-14.475 -49.625721 15.7908
-14.625 -49.625721 15.7908
-14.775 -49.625721 15.7689
-14.925 -49.625721 15.7397
-15.075 -49.625721 15.7397
-15.225 -49.625721 15.7908
-15.375 -49.625721 15.8346
-15.525 -49.625721 15.8565
-15.675 -49.625721 15.7835
-15.825 -49.625721 15.7689
-15.975 -49.625721 15.7835
-16.125 -49.625721 15.7689
-16.275 -49.625721 15.7981
-16.424999 -49.625721 15.8273
-16.575001 -49.625721 15.8638
-16.725 -49.625721 15.8565
-16.875 -49.625721 15.8492
-17.025 -49.625721 15.8565
-17.174999 -49.625721 15.8273
-17.325001 -49.625721 15.8565
-17.475 -49.625721 15.893
-17.625 -49.625721 15.9149
-17.775 -49.625721 15.9441
-17.924999 -49.625721 15.966
-18.075001 -49.625721 15.9879
-18.225 -49.625721 15.9003
-18.375 -49.625721 15.9149
-18.525 -49.625721 15.9587
-18.674999 -49.625721 15.9587
-18.825001 -49.625721 15.9368
-18.975 -49.625721 15.9149
-19.125 -49.625721 15.9149
-19.275 -49.625721 16.0098
-19.424999 -49.625721 16.017099
-19.575001 -49.625721 15.9879
-19.725 -49.625721 16.024401
-19.875 -49.625721 16.0317
-20.025 -49.625721 15.9952
-20.174999 -49.625721 15.9222
-20.325001 -49.625721 15.9368
-20.475 -49.625721 16.002501
-20.625 -49.625721 16.0755
-20.775 -49.625721 16.0755
-20.924999 -49.625721 16.0755
-21.075001 -49.625721 16.0609
-21.225 -49.625721 16.0609
-21.375 -49.625721 16.0609
-21.525 -49.625721 16.068199
-21.674999 -49.625721 16.1047
-21.825001 -49.625721 16.1047
-21.975 -49.625721 16.1558
-22.125 -49.625721 16.192301
-22.275 -49.625721 16.141199
-22.424999 -49.625721 16.1339
-22.575001 -49.625721 16.1339
-22.725 -49.625721 16.1558
-22.875 -49.625721 16.170401
-23.025 -49.625721 16.1777
-23.174999 -49.625721 16.163099
-23.325001 -49.625721 16.1266
-23.475 -49.625721 16.119301
-23.625 -49.625721 16.1339
-23.775 -49.625721 16.119301
-23.924999 -49.625721 16.2069
-24.075001 -49.625721 16.2507
-24.225 -49.625721 16.2507
-24.375 -49.625721 16.2507
-24.525 -49.625721 16.2288
-24.674999 -49.625721 16.192301
-24.825001 -49.625721 16.214199
-24.975 -49.625721 16.2507
-25.125 -49.625721 16.2507
-25.275 -49.625721 16.184999
-25.424999 -49.625721 16.2726
-25.575001 -49.625721 16.316401
-25.725 -49.625721 16.330999
-25.875 -49.625721 16.287201
-26.025 -49.625721 16.287201
-26.174999 -49.625721 16.316401
-26.325001 -49.625721 16.3456
-26.475 -49.625721 16.382099
-26.625 -49.625721 16.3748
-26.775 -49.625721 16.3237
-26.924999 -49.625721 16.2799
-27.075001 -49.625721 16.338301
-27.225 -49.625721 16.3894
-27.375 -49.625721 16.3456
-27.525 -49.625721 16.360201
-27.674999 -49.625721 16.382099
-27.825001 -49.625721 16.3894
-27.975 -49.625721 16.4405
-28.125 -49.625721 16.411301
-28.275 -49.625721 16.3894
-28.424999 -49.625721 16.476999
-28.575001 -49.625721 16.484301
-28.725 -49.625721 16.455099
-28.875 -49.625721 16.3967
-29.025 -49.625721 16.411301
-29.174999 -49.625721 16.455099
-29.325001 -49.625721 16.506201
-29.475 -49.625721 16.476999
-29.625 -49.625721 16.4405
-29.775 -49.625721 16.4186
-29.924999 -49.625721 16.433201
-30.075001 -49.625721 16.5208
-30.225 -49.625721 16.549999
-30.375 -49.625721 16.5208
-30.525 -49.625721 16.5208
-30.674999 -49.625721 16.5354
-30.825001 -49.625721 16.5354
-30.975 -49.625721 16.5135
-31.125 -49.625721 16.5646
-31.275 -49.625721 16.5646
-31.424999 -49.625721 16.5135
-31.575001 -49.625721 16.579201
-31.725 -49.625721 16.6376
-31.875 -49.625721 16.6595
-32.025002 -49.625721 16.601101
-32.174999 -49.625721 16.557301
-32.325001 -49.625721 16.549999
-32.474998 -49.625721 16.601101
-32.625 -49.625721 16.571899
-32.775002 -49.625721 16.571899
-32.924999 -49.625721 16.6084
-33.075001 -49.625721 16.652201
-33.224998 -49.625721 16.7106
-33.375 -49.625721 16.739799
-33.525002 -49.625721 16.7033
-33.674999 -49.625721 16.674101
-33.825001 -49.625721 16.6814
-33.974998 -49.625721 16.717899
-34.125 -49.625721 16.747101
-34.275002 -49.625721 16.7325
-34.424999 -49.625721 16.717899
-34.575001 -49.625721 16.7325
-34.724998 -49.625721 16.7325
-34.875 -49.625721 16.725201
-35.025002 -49.625721 16.7106
-35.174999 -49.625721 16.747101
-35.325001 -49.625721 16.747101
-35.474998 -49.625721 16.7325
-35.625 -49.625721 16.7544
-35.775002 -49.625721 16.768999
-35.924999 -49.625721 16.7763
-36.075001 -49.625721 16.7763
-36.224998 -49.625721 16.768999
-36.375 -49.625721 16.790899
-36.525002 -49.625721 16.8347
-36.674999 -49.625721 16.841999
-36.825001 -49.625721 16.871201
-36.974998 -49.625721 16.8785
-37.125 -49.625721 16.841999
-37.275002 -49.625721 16.885799
-37.424999 -49.625721 16.915001
-37.575001 -49.625721 16.944201
-37.724998 -49.625721 16.9953
-37.875 -49.625721 16.966101
-38.025002 -49.625721 16.936899
-38.174999 -49.625721 16.9734
-38.325001 -49.625721 16.9734
-38.474998 -49.625721 16.966101
-38.625 -49.625721 16.958799
-38.775002 -49.625721 16.958799
-38.924999 -49.625721 16.9515
-39.075001 -49.625721 16.944201
-39.224998 -49.625721 16.966101
-39.375 -49.625721 17.009899
-39.525002 -49.625721 17.0172
-39.674999 -49.625721 16.988001
-39.825001 -49.625721 16.9807
-39.974998 -49.625721 16.9807
-40.125 -49.625721 17.009899
-40.275002 -49.625721 17.0683
-40.424999 -49.625721 17.0683
-40.575001 -49.625721 17.0464
-40.724998 -49.625721 17.009899
-40.875 -49.625721 17.082899
-41.025002 -49.625721 17.104799
-41.174999 -49.625721 17.0975
-41.325001 -49.625721 17.126699
-41.474998 -49.625721 17.082899
-41.625 -49.625721 17.0464
-41.775002 -49.625721 17.0756
-41.924999 -49.625721 17.1705
-42.075001 -49.625721 17.199699
-42.224998 -49.625721 17.177799
-42.375 -49.625721 17.177799
-42.525002 -49.625721 17.1705
-42.674999 -49.625721 17.1632
-42.825001 -49.625721 17.1632
-42.974998 -49.625721 17.207001
-43.125 -49.625721 17.2216
-43.275002 -49.625721 17.1924
-43.424999 -49.625721 17.2362
-43.575001 -49.625721 17.258101
-43.724998 -49.625721 17.280001
-43.875 -49.625721 17.301901
-44.025002 -49.625721 17.3311
-44.174999 -49.625721 17.3384
-44.325001 -49.625721 17.301901
-44.474998 -49.625721 17.367599
-44.625 -49.625721 17.367599
-44.775002 -49.625721 17.3311
-44.924999 -49.625721 17.3895
-45.075001 -49.625721 17.4041
-45.224998 -49.625721 17.4114
-45.375 -49.625721 17.4114
-45.525002 -49.625721 17.396799
-45.674999 -49.625721 17.396799
-45.825001 -49.625721 17.440599
-45.974998 -49.625721 17.426001
-46.125 -49.625721 17.4114
-46.275002 -49.625721 17.4114
-46.424999 -49.625721 17.4844
-46.575001 -49.625721 17.4114
-46.724998 -49.625721 17.345699
-46.875 -49.625721 17.3603
-47.025002 -49.625721 17.418699
-47.174999 -49.625721 17.4625
-47.325001 -49.625721 17.491699
-47.474998 -49.625721 17.491699
-47.625 -49.625721 17.5063
-47.775002 -49.625721 17.513599
-47.924999 -49.625721 17.5282
-48.075001 -49.625721 17.5355
-48.224998 -49.625721 17.5282
-48.375 -49.625721 17.520901
-48.525002 -49.625721 17.5501
-48.674999 -49.625721 17.5574
-48.825001 -49.625721 17.572001
-48.974998 -49.625721 17.6085
-49.125 -49.625721 17.615801
-49.275002 -49.625721 17.6231
-49.424999 -49.625721 17.6231
-49.575001 -49.625721 17.666901
-49.724998 -49.625721 17.666901
-49.875 -49.625721 17.6523
-50.025002 -49.625721 17.710699
-50.174999 -49.625721 17.710699
-50.325001 -49.625721 17.7034
-50.474998 -49.625721 17.7034
-50.625 -49.625721 17.7034
-50.775002 -49.625721 17.6961
-50.924999 -49.625721 17.6961
-51.075001 -49.625721 17.783701
-51.224998 -49.625721 17.7691
-51.375 -49.625721 17.754499
-51.525002 -49.625721 17.791
-51.674999 -49.625721 17.732599
-51.825001 -49.625721 17.739901
-51.974998 -49.625721 17.7983
-52.125 -49.625721 17.8713
-52.275002 -49.625721 17.8932
-52.424999 -49.625721 17.900499
-52.575001 -49.625721 17.900499
-52.724998 -49.625721 17.8859
-52.875 -49.625721 17.907801
-53.025002 -49.625721 17.9589
-53.174999 -49.625721 17.9589
-53.325001 -49.625721 17.973499
-53.474998 -49.625721 17.9881
-53.625 -49.625721 17.9662
-53.775002 -49.625721 17.980801
-53.924999 -49.625721 17.9881
-54.075001 -49.625721 17.980801
-54.224998 -49.625721 17.9589
-54.375 -49.625721 18.0173
-54.525002 -49.625721 18.075701
-54.674999 -49.625721 18.0611
-54.825001 -49.625721 18.0392
-54.974998 -49.625721 18.068399
-55.125 -49.625721 18.141399
-55.275002 -49.625721 18.126801
-55.424999 -49.625721 18.1122
-55.575001 -49.625721 18.126801
-55.724998 -49.625721 18.1998
-55.875 -49.625721 18.141399
-56.025002 -49.625721 18.119499
-56.174999 -49.625721 18.1341
-56.325001 -49.625721 18.119499
-56.474998 -49.625721 18.156
-56.625 -49.625721 18.192499
-56.775002 -49.625721 18.1852
-56.924999 -49.625721 18.2071
-57.075001 -49.625721 18.221701
-57.224998 -49.625721 18.229
-57.375 -49.625721 18.2728
-57.525002 -49.625721 18.287399
-57.674999 -49.625721 18.2801
-57.825001 -49.625721 18.302
-57.974998 -49.625721 18.2509
-58.125 -49.625721 18.243601
-58.275002 -49.625721 18.2801
56.174999 -48.689381 17.258101
56.025002 -48.689381 17.258101
55.875 -48.689381 17.250799
55.724998 -48.689381 17.2435
55.575001 -48.689381 17.2654
55.424999 -48.689381 17.272699
55.275002 -48.689381 17.2654
55.125 -48.689381 17.250799
54.974998 -48.689381 17.280001
54.825001 -48.689381 17.2946
54.674999 -48.689381 17.280001
54.525002 -48.689381 17.228901
54.375 -48.689381 17.199699
54.224998 -48.689381 17.177799
54.075001 -48.689381 17.1632
53.924999 -48.689381 17.1632
53.775002 -48.689381 17.1632
53.625 -48.689381 17.177799
53.474998 -48.689381 17.155899
53.325001 -48.689381 17.112101
53.174999 -48.689381 17.0902
53.025002 -48.689381 17.082899
52.875 -48.689381 17.053699
52.724998 -48.689381 17.0245
52.575001 -48.689381 17.0026
52.424999 -48.689381 16.9807
52.275002 -48.689381 16.988001
52.125 -48.689381 16.9807
51.974998 -48.689381 16.9515
51.825001 -48.689381 16.9296
51.674999 -48.689381 16.9223
51.525002 -48.689381 16.936899
51.375 -48.689381 16.966101
51.224998 -48.689381 16.944201
51.075001 -48.689381 16.944201
50.924999 -48.689381 16.966101
50.775002 -48.689381 16.966101
50.625 -48.689381 16.915001
50.474998 -48.689381 16.8785
50.325001 -48.689381 16.871201
50.174999 -48.689381 16.871201
50.025002 -48.689381 16.863899
49.875 -48.689381 16.8274
49.724998 -48.689381 16.768999
49.575001 -48.689381 16.768999
49.424999 -48.689381 16.7617
49.275002 -48.689381 16.747101
49.125 -48.689381 16.7325
48.974998 -48.689381 16.725201
48.825001 -48.689381 16.7325
48.674999 -48.689381 16.725201
48.525002 -48.689381 16.725201
48.375 -48.689381 16.7106
48.224998 -48.689381 16.674101
48.075001 -48.689381 16.6887
47.924999 -48.689381 16.6887
47.775002 -48.689381 16.674101
47.625 -48.689381 16.695999
47.474998 -48.689381 16.674101
47.325001 -48.689381 16.644899
47.174999 -48.689381 16.6157
47.025002 -48.689381 16.6157
46.875 -48.689381 16.5865
46.724998 -48.689381 16.571899
46.575001 -48.689381 16.5865
46.424999 -48.689381 16.5427
46.275002 -48.689381 16.5208
46.125 -48.689381 16.506201
45.974998 -48.689381 16.528099
45.825001 -48.689381 16.506201
45.674999 -48.689381 16.455099
45.525002 -48.689381 16.403999
45.375 -48.689381 16.433201
45.224998 -48.689381 16.403999
45.075001 -48.689381 16.3748
44.924999 -48.689381 16.3967
44.775002 -48.689381 16.403999
44.625 -48.689381 16.4186
44.474998 -48.689381 16.433201
44.325001 -48.689381 16.3967
44.174999 -48.689381 16.3675
44.025002 -48.689381 16.338301
43.875 -48.689381 16.360201
43.724998 -48.689381 16.3675
43.575001 -48.689381 16.3675
43.424999 -48.689381 16.3967
43.275002 -48.689381 16.338301
43.125 -48.689381 16.309099
42.974998 -48.689381 16.287201
42.825001 -48.689381 16.2799
42.674999 -48.689381 16.2799
42.525002 -48.689381 16.287201
42.375 -48.689381 16.2726
42.224998 -48.689381 16.2799
42.075001 -48.689381 16.265301
41.924999 -48.689381 16.2288
41.775002 -48.689381 16.2288
41.625 -48.689381 16.1996
41.474998 -48.689381 16.1777
41.325001 -48.689381 16.1777
41.174999 -48.689381 16.1777
41.025002 -48.689381 16.1777
40.875 -48.689381 16.1777
40.724998 -48.689381 16.1266
40.575001 -48.689381 16.141199
40.424999 -48.689381 16.141199
40.275002 -48.689381 16.068199
40.125 -48.689381 16.1047
39.974998 -48.689381 16.119301
39.825001 -48.689381 16.090099
39.674999 -48.689381 16.090099
39.525002 -48.689381 16.097401
39.375 -48.689381 16.1047
39.224998 -48.689381 16.0609
39.075001 -48.689381 16.046301
38.924999 -48.689381 16.024401
38.775002 -48.689381 15.9952
38.625 -48.689381 16.0536
38.474998 -48.689381 16.0828
38.325001 -48.689381 16.0828
38.174999 -48.689381 16.039
38.025002 -48.689381 16.024401
37.875 -48.689381 16.002501
37.724998 -48.689381 15.966
37.575001 -48.689381 15.9295
37.424999 -48.689381 15.9222
37.275002 -48.689381 15.9295
37.125 -48.689381 15.9222
36.974998 -48.689381 15.9149
36.825001 -48.689381 15.9222
36.674999 -48.689381 15.9368
