# .PCD v0.7 - Point Cloud Data file format
VERSION 0.7
FIELDS x y z
SIZE 4 4 4
TYPE F F F
COUNT 1 1 1
WIDTH 2122
HEIGHT 1
VIEWPOINT 0 0 0 1 0 0 0
POINTS 2122
DATA ascii
-72.224998 -108 91.639977
55.875 -108 69.453102
40.724998 -108 74.782097
-15.525 -108 91.564796
-71.025002 -108 91.433403
-85.724998 -108 81.972603
57.825001 -107 70.589905
44.174999 -107 77.562225
-12.225 -107 92.215981
56.025002 -107 69.518799
39.825001 -107 75.074097
-15.525 -107 91.389603
43.724998 -106 77.869713
-11.625 -106 92.113495
39.825001 -106 75.293098
-14.175 -106 91.302002
72.375 -105 59.843864
43.424999 -105 78.171776
-11.325 -105 92.002319
71.775002 -105 59.590801
39.674999 -105 75.599701
-14.475 -105 91.177902
71.474998 -104 61.279255
42.974998 -104 78.542366
-10.875 -104 91.928177
-73.425003 -104 92.065269
70.275002 -104 60.912102
38.924999 -104 75.855202
-14.025 -104 91.112198
-86.175003 -104 82.315697
71.025002 -103 62.503735
58.125 -103 71.173859
42.525002 -103 78.86515
-10.425 -103 91.857269
-73.724998 -103 92.190392
84.375 -103 66.940811
70.574997 -103 63.4109
58.275002 -103 71.353844
42.075001 -103 79.180016
-9.9750004 -103 91.790176
-46.724998 -103 94.584854
69.074997 -103 61.788101
56.625 -103 70.270699
38.325001 -103 76.052299
-12.675 -103 90.8713
3.4028235e+38 -103 3.4028235e+38
84.375 -103 51.8382
69.074997 -103 61.788101
56.625 -103 70.270699
38.325001 -103 76.052299
-12.675 -103 90.8713
-72.824997 -103 92.097702
69.824997 -102 64.169441
58.275002 -102 71.495712
41.625 -102 79.509666
-9.5249996 -102 91.751801
67.275002 -102 63.313801
56.924999 -102 70.635696
37.424999 -102 76.672798
-12.975 -102 90.791
69.224998 -101 64.863876
41.174999 -101 79.810585
-9.0749998 -101 91.66198
66.375 -101 63.985401
36.974998 -101 76.957497
-12.375 -101 90.681503
68.925003 -100 65.42337
58.575001 -100 71.811119
40.875 -100 80.109367
-8.625 -100 91.619835
66.375 -100 64.496399
57.075001 -100 70.913101
36.525002 -100 77.147301
-11.475 -100 90.644997
68.474998 -99 65.905449
40.424999 -99 80.43985
-8.3249998 -99 91.620728
65.925003 -99 64.927101
36.525002 -99 77.504997
-11.025 -99 90.542801
68.025002 -98 66.403702
58.575001 -98 72.01239
39.974998 -98 80.759537
-7.875 -98 91.57489
65.474998 -98 65.445396
57.224998 -98 71.146698
35.625 -98 77.760498
-10.575 -98 90.477097
67.724998 -97 66.915619
39.525002 -97 81.031296
-7.4250002 -97 91.522087
65.025002 -97 65.890701
35.625 -97 78.059799
-10.575 -97 90.418701
67.275002 -96 67.395988
39.224998 -96 81.299675
21.525 -96 87.11306
-6.9749999 -96 91.490105
64.724998 -96 66.379799
34.875 -96 78.2715
20.025 -96 87.016899
-9.8249998 -96 90.367599
66.824997 -95 67.877632
38.625 -95 81.666634
-6.5250001 -95 91.490189
64.275002 -95 66.788597
34.125 -95 78.541603
-9.6750002 -95 90.323799
66.525002 -94 68.367126
38.325001 -94 81.925148
-6.2249999 -94 91.464378
63.825001 -94 67.233902
34.125 -94 78.767899
-9.2250004 -94 90.2873
66.224998 -93 68.83371
37.875 -93 82.203896
21.525 -93 87.381256
-5.7750001 -93 91.421516
-37.575001 -93 94.942505
63.674999 -93 67.635399
33.525002 -93 78.994202
20.025 -93 87.294296
-9.0749998 -93 90.155899
-39.224998 -93 94.703796
65.775002 -92 69.281914
37.424999 -92 82.480507
-5.3249998 -92 91.406166
-37.125 -92 94.975426
62.924999 -92 68.0588
33.525002 -92 79.220497
-8.625 -92 90.199699
-39.075001 -92 94.7257
65.324997 -91 69.729553
37.125 -91 82.738007
-4.875 -91 91.339272
-36.375 -91 94.969963
-47.474998 -91 95.40815
62.775002 -91 68.474899
32.625 -91 79.4468
-8.0249996 -91 90.0756
-38.174999 -91 94.674599
-69.974998 -91 93.8424
65.025002 -90 70.111946
36.674999 -90 83.005508
-4.2750001 -90 91.275688
-36.375 -90 94.994492
-46.424999 -90 95.477379
62.174999 -90 68.861801
32.174999 -90 79.724197
-7.4250002 -90 90.090202
-38.174999 -90 94.711098
-71.175003 -90 93.922699
64.724998 -89 70.545456
36.375 -89 83.232307
-3.675 -89 91.215103
-35.625 -89 94.996574
-47.625 -89 95.504059
-73.875 -89 94.222076
86.175003 -89 69.105453
64.275002 -89 70.970474
35.924999 -89 83.48822
21.674999 -89 87.803246
-2.925 -89 91.096588
-35.025002 -89 95.012131
-47.025002 -89 95.565491
62.025002 -89 69.329002
32.174999 -89 79.892097
-7.5749998 -89 90.170502
-37.575001 -89 94.689201
-71.175003 -89 94.039497
3.4028235e+38 -89 3.4028235e+38
86.025002 -89 55.955399
62.025002 -89 69.329002
32.174999 -89 79.892097
20.625 -89 87.586304
-7.5749998 -89 90.170502
-37.575001 -89 94.689201
-71.175003 -89 94.039497
63.974998 -88 71.34919
35.474998 -88 83.748787
-2.0250001 -88 91.003891
-34.424999 -88 95.003609
-46.424999 -88 95.649689
61.424999 -88 70.095497
30.975 -88 80.381203
-5.1750002 -88 90.2873
-37.125 -88 94.660004
-70.574997 -88 94.273102
63.525002 -87 71.761436
35.174999 -87 83.972725
-0.97500002 -87 90.853668
-33.825001 -87 95.050461
-47.625 -87 95.705269
60.375 -87 70.431297
30.525 -87 80.585602
-4.7249999 -87 90.367599
-36.525002 -87 94.601601
-69.974998 -87 94.3461
63.224998 -86 72.191132
34.724998 -86 84.234375
0.075000003 -86 90.770271
-33.525002 -86 95.030815
60.075001 -86 70.767097
30.225 -86 80.848396
-1.875 -86 90.571999
-35.924999 -86 94.572403
62.775002 -85 72.589195
34.275002 -85 84.47364
22.125 -85 88.119492
-0.375 -85 90.8451
-32.924999 -85 95.042381
-46.724998 -85 95.805954
59.924999 -85 71.168602
29.475 -85 81.016296
20.924999 -85 87.936699
-2.325 -85 90.732597
-35.174999 -85 94.543198
-69.675003 -85 94.484802
62.474998 -84 72.950035
33.974998 -84 84.725418
22.125 -84 88.223396
-32.775002 -84 95.036842
-47.174999 -84 95.856071
59.174999 -84 71.475197
29.625 -84 81.271797
21.075001 -84 88.0243
-35.625 -84 94.5578
-70.125 -84 94.594299
62.025002 -83 73.370407
33.525002 -83 84.922981
-32.025002 -83 95.045456
58.875 -83 71.774498
29.325001 -83 81.425102
-34.724998 -83 94.5578
79.125 -82 63.896637
61.724998 -82 73.685455
33.224998 -82 85.168282
22.424999 -82 88.373367
-31.725 -82 95.078674
77.925003 -82 62.9123
58.424999 -82 72.117599
28.875 -82 81.680603
21.075001 -82 88.236
-33.825001 -82 94.565102
77.925003 -81 65.281769
61.275002 -81 74.13298
32.775002 -81 85.369949
22.424999 -81 88.507408
-30.975 -81 95.065208
76.125 -81 64.226303
58.125 -81 72.460701
27.674999 -81 81.870399
21.075001 -81 88.352798
-33.674999 -81 94.521301
76.724998 -80 66.306396
61.125 -80 74.407471
32.325001 -80 85.660957
22.275 -80 88.578903
-30.825001 -80 95.103127
74.925003 -80 65.284798
57.825001 -80 72.876801
28.125 -80 82.089401
20.325001 -80 88.433098
-33.075001 -80 94.535896
75.525002 -79 67.345222
61.275002 -79 74.587822
31.875 -79 85.906837
-30.225 -79 95.118011
73.724998 -79 66.233803
57.375 -79 73.125
27.375 -79 82.308403
-32.625 -79 94.514
74.775002 -78 68.07354
61.424999 -78 74.744629
31.424999 -78 86.147575
-29.775 -78 95.130257
72.675003 -78 67.022202
57.224998 -78 73.563004
27.375 -78 82.512802
-32.625 -78 94.514
74.625 -77 68.530212
61.575001 -77 74.896866
58.575001 -77 74.596291
31.125 -77 86.37236
-29.475 -77 95.155838
-50.474998 -77 96.15377
72.074997 -77 67.671898
59.625 -77 74.037498
56.325001 -77 73.906097
26.325001 -77 82.804802
-32.325001 -77 94.506699
-69.974998 -77 94.652702
73.875 -76 68.973267
61.575001 -76 75.018158
58.275002 -76 75.225983
30.825001 -76 86.592598
-28.875 -76 95.244476
-51.974998 -76 96.201622
71.474998 -76 68.175598
60.075001 -76 74.241898
56.325001 -76 74.205399
26.475 -76 82.972702
-31.424999 -76 94.535896
-68.324997 -76 94.995796
72.974998 -75 69.63031
61.724998 -75 75.197708
58.424999 -75 75.975296
30.375 -75 86.816864
-28.575001 -75 95.239693
-50.775002 -75 96.270409
71.175003 -75 68.796097
59.924999 -75 74.373299
55.724998 -75 74.482803
25.875 -75 83.206299
-31.275 -75 94.579697
-68.175003 -75 95.368103
72.375 -74 70.294403
61.875 -74 75.30648
58.275002 -74 76.56514
29.924999 -74 87.072632
-28.275 -74 95.286034
-52.875 -74 96.275505
-73.574997 -74 95.761139
89.775002 -74 68.075043
71.625 -74 70.917603
62.025002 -74 75.459435
58.125 -74 77.027771
29.625 -74 87.277275
-27.525 -74 95.281631
-49.275002 -74 96.344406
70.425003 -74 69.277901
60.075001 -74 74.387901
55.424999 -74 74.825897
25.575001 -74 83.366898
-30.525 -74 94.535896
-70.425003 -74 95.492203
3.4028235e+38 -74 3.4028235e+38
89.025002 -74 54.794701
70.425003 -74 69.277901
60.075001 -74 74.387901
55.424999 -74 74.825897
25.575001 -74 83.366898
-30.525 -74 94.535896
-70.425003 -74 95.492203
62.025002 -73 75.606934
57.825001 -73 77.35714
29.174999 -73 87.495453
-27.225 -73 95.304062
-59.174999 -73 96.199112
60.525002 -73 74.825897
54.525002 -73 75.548599
24.375 -73 83.7976
-30.225 -73 94.550499
-69.974998 -73 95.681999
62.174999 -72 75.760406
57.525002 -72 77.680351
28.875 -72 87.696686
-27.075001 -72 95.327393
-53.325001 -72 96.401665
60.525002 -72 74.782097
54.224998 -72 75.745697
24.375 -72 83.9655
-29.924999 -72 94.535896
-70.125 -72 95.806099
62.325001 -71 75.895119
57.075001 -71 78.057343
28.424999 -71 87.93055
-26.475 -71 95.359428
-53.775002 -71 96.481895
60.674999 -71 75.0522
53.775002 -71 76.147202
23.775 -71 84.155296
-29.625 -71 94.543198
-69.224998 -71 95.8937
62.474998 -70 76.038841
56.625 -70 78.361557
27.975 -70 88.177162
-26.174999 -70 95.403847
60.825001 -70 75.212799
53.174999 -70 76.417297
22.875 -70 84.440002
-28.875 -70 94.565102
62.625 -69 76.204865
56.325001 -69 78.717529
27.525 -69 88.365135
-25.725 -69 95.38131
-54.375 -69 96.59948
60.974998 -69 75.402603
53.174999 -69 76.775002
22.424999 -69 84.651703
-28.725 -69 94.521301
-69.675003 -69 96.054298
62.775002 -68 76.332169
55.875 -68 79.02002
27.225 -68 88.566635
-25.125 -68 95.397049
-58.575001 -68 96.536903
60.974998 -68 75.497498
52.875 -68 77.0159
22.275 -68 84.797699
-27.975 -68 94.543198
-69.074997 -68 96.134598
62.924999 -67 76.397545
55.575001 -67 79.304909
26.775 -67 88.779694
-24.825001 -67 95.409637
-54.525002 -67 96.645149
61.125 -67 75.533997
52.125 -67 77.205704
21.975 -67 84.965599
-27.975 -67 94.499397
-69.074997 -67 96.200302
62.924999 -66 76.555542
55.125 -66 79.61673
26.325001 -66 88.97374
-24.225 -66 95.402557
-53.924999 -66 96.66436
61.275002 -66 75.738403
51.375 -66 77.534203
21.825001 -66 85.1408
-26.924999 -66 94.535896
-69.675003 -66 96.236801
63.075001 -65 76.692787
54.825001 -65 79.929871
26.025 -65 89.151802
-23.775 -65 95.384758
-54.674999 -65 96.681206
61.275002 -65 75.7603
51.525002 -65 77.818901
21.075001 -65 85.294098
-27.225 -65 94.455597
-68.775002 -65 96.200302
63.224998 -64 76.804588
54.375 -64 80.213531
25.575001 -64 89.340851
-23.475 -64 95.404274
-55.424999 -64 96.716461
61.275002 -64 75.891701
51.075001 -64 78.067101
21.075001 -64 85.498497
-26.475 -64 94.419098
-68.625 -64 96.2295
63.375 -63 76.922043
54.075001 -63 80.51223
25.125 -63 89.511299
-23.025 -63 95.375816
-58.125 -63 96.705406
61.424999 -63 75.993896
50.625 -63 78.300697
20.625 -63 85.666397
-26.325001 -63 94.433701
-69.974998 -63 96.309799
63.525002 -62 77.030777
53.775002 -62 80.806648
24.674999 -62 89.676598
-22.725 -62 95.420967
-58.724998 -62 96.732239
61.424999 -62 76.0961
50.174999 -62 78.599998
20.025 -62 85.834297
-25.875 -62 94.433701
-71.175003 -62 96.375504
63.674999 -61 77.156555
53.325001 -61 81.05455
24.225 -61 89.882896
-22.275 -61 95.418709
-61.424999 -61 96.707741
61.575001 -61 76.227501
49.875 -61 78.833603
19.575001 -61 86.024101
-25.424999 -61 94.367996
-69.824997 -61 96.375504
63.825001 -60 77.262444
53.025002 -60 81.373932
23.924999 -60 90.051666
-21.674999 -60 95.40712
-57.075001 -60 96.830421
61.724998 -60 76.358902
49.275002 -60 79.176697
19.125 -60 86.199303
-24.825001 -60 94.3461
-70.275002 -60 96.390099
63.974998 -59 77.332016
52.575001 -59 81.616234
23.325001 -59 90.259232
-21.225 -59 95.435219
-56.775002 -59 96.845139
-73.275002 -59 96.830582
91.125 -59 69.994926
64.125 -59 77.508858
52.125 -59 81.898857
22.875 -59 90.447334
-20.924999 -59 95.464951
-57.224998 -59 96.875206
61.875 -59 76.417297
49.125 -59 79.395699
18.825001 -59 86.440201
-24.075001 -59 94.324203
-69.074997 -59 96.499603
3.4028235e+38 -59 3.4028235e+38
90.375 -59 57.5541
61.875 -59 76.417297
49.125 -59 79.395699
18.825001 -59 86.440201
-24.075001 -59 94.324203
-69.074997 -59 96.499603
63.974998 -58 77.625511
51.825001 -58 82.14415
22.424999 -58 90.567802
-20.325001 -58 95.434143
-58.125 -58 96.889969
62.325001 -58 76.753098
47.924999 -58 79.841003
17.775 -58 87.046097
-23.924999 -58 94.309601
-69.974998 -58 96.528801
64.275002 -57 77.70842
51.525002 -57 82.404259
22.275 -57 90.657227
-19.875 -57 95.440201
-55.275002 -57 96.95784
62.174999 -57 76.775002
47.625 -57 80.096497
16.424999 -57 87.454903
-23.325001 -57 94.287697
-69.974998 -57 96.587196
64.425003 -56 77.816299
51.075001 -56 82.669579
22.275 -56 90.744339
-19.725 -56 95.467384
-55.125 -56 96.993118
62.474998 -56 76.840698
47.025002 -56 80.3228
16.275 -56 87.892899
-23.025 -56 94.287697
-69.824997 -56 96.6091
64.425003 -55 77.921936
50.775002 -55 82.922722
18.375 -55 90.721489
-19.125 -55 95.452347
-72.974998 -55 96.893799
62.625 -55 76.950203
46.724998 -55 80.549103
14.775 -55 88.455002
-22.725 -55 94.294998
-82.574997 -55 92.367798
64.574997 -54 78.025444
50.325001 -54 83.183189
16.725 -54 91.082199
-18.825001 -54 95.472748
-70.425003 -54 96.725121
62.775002 -54 77.110802
46.724998 -54 80.797302
13.575 -54 89.228798
-22.125 -54 94.2658
-83.625 -54 91.703499
64.574997 -53 78.153435
49.875 -53 83.439186
22.125 -53 91.033264
14.475 -53 91.437698
-18.375 -53 95.505005
-65.925003 -53 96.928101
62.924999 -53 77.212997
46.275002 -53 81.009003
20.025 -53 90.820198
12.075 -53 90.250801
-21.825001 -53 94.302299
-84.224998 -53 91.134102
64.724998 -52 78.240639
49.424999 -52 83.702377
21.975 -52 91.098114
-18.075001 -52 95.512718
-60.224998 -52 97.097656
-77.175003 -52 95.827972
62.924999 -52 77.286003
45.825001 -52 81.227997
20.174999 -52 90.856697
-21.825001 -52 94.338799
-75.375 -52 95.3535
-84.675003 -52 90.688797
64.875 -51 78.37619
49.125 -51 83.906097
21.975 -51 91.209236
-17.475 -51 95.54554
-54.525002 -51 97.173317
-75.375 -51 96.555984
63.075001 -51 77.249496
44.924999 -51 81.446999
19.575001 -51 90.980797
-20.625 -51 94.309601
-73.275002 -51 95.959396
-85.125 -51 90.499001
64.875 -50 78.49398
48.825001 -50 84.172333
22.125 -50 91.282028
-17.174999 -50 95.51046
-55.424999 -50 97.223473
-74.474998 -50 97.013962
63.224998 -50 77.541496
44.924999 -50 81.644096
20.174999 -50 91.083
-20.625 -50 94.309601
-72.824997 -50 96.331703
-84.974998 -50 90.236198
78.675003 -49 71.047951
65.025002 -49 78.547005
48.375 -49 84.384293
21.975 -49 91.341751
-16.575001 -49 95.551125
-59.625 -49 97.192116
-73.125 -49 97.340248
77.324997 -49 70.577301
63.224998 -49 77.490402
44.474998 -49 81.855797
20.325001 -49 91.134102
-20.325001 -49 94.294998
-70.724998 -49 96.630997
-85.425003 -49 90.0756
77.625 -48 72.761742
65.324997 -48 78.619255
48.075001 -48 84.587013
22.125 -48 91.420944
-16.275 -48 95.536705
-56.924999 -48 97.265656
-73.425003 -48 97.354248
75.375 -48 71.781799
63.375 -48 77.5196
44.174999 -48 82.052902
20.174999 -48 91.1633
-19.275 -48 94.280403
-69.074997 -48 96.893799
-85.574997 -48 90.009903
76.125 -47 73.697189
64.875 -47 78.597374
47.625 -47 84.833389
22.125 -47 91.496635
-15.825 -47 95.56311
-54.674999 -47 97.315231
-73.574997 -47 97.369507
72.824997 -47 72.584801
63.674999 -47 77.7313
43.724998 -47 82.257301
20.174999 -47 91.302002
-19.125 -47 94.214699
-68.175003 -47 96.937599
-85.574997 -47 89.915001
74.775002 -46 74.453293
47.325001 -46 85.004929
22.125 -46 91.567665
-15.525 -46 95.509888
-73.275002 -46 97.387634
71.925003 -46 73.351303
43.275002 -46 82.447098
19.725 -46 91.345802
-18.975 -46 94.214699
-85.574997 -46 89.710602
73.724998 -45 75.07428
46.875 -45 85.216728
-15.075 -45 95.525871
-60.375 -45 97.288429
-73.275002 -45 97.40889
-87.824997 -45 90.956146
92.324997 -45 74.607834
72.824997 -45 75.570023
46.575001 -45 85.432831
22.275 -45 91.689178
-14.775 -45 95.516525
-73.275002 -45 97.431328
70.875 -45 73.8769
42.525002 -45 82.629601
-18.225 -45 94.185501
-67.425003 -45 96.988701
-85.724998 -45 89.980698
3.4028235e+38 -45 3.4028235e+38
92.324997 -45 59.320702
70.875 -45 73.8769
42.525002 -45 82.629601
20.924999 -45 91.447998
-18.225 -45 94.185501
-85.724998 -45 89.980698
72.224998 -44 76.037483
46.125 -44 85.629929
22.125 -44 91.726013
-14.175 -44 95.515099
-73.275002 -44 97.462807
68.925003 -44 74.862396
42.075001 -44 82.987297
20.025 -44 91.579399
-17.174999 -44 94.170898
-86.025002 -44 90.0756
71.474998 -43 76.439041
45.825001 -43 85.845757
-13.875 -43 95.512146
-59.775002 -43 97.355537
-73.125 -43 97.474838
68.925003 -43 75.205498
41.474998 -43 83.198997
-17.174999 -43 94.068703
-69.224998 -43 97.054398
-86.025002 -43 90.060997
71.025002 -42 76.785622
45.525002 -42 86.010147
22.275 -42 91.82827
-13.425 -42 95.457733
68.025002 -42 75.548599
41.474998 -42 83.286598
20.325001 -42 91.696198
-16.875 -42 94.105202
70.574997 -41 77.074371
45.075001 -41 86.162514
22.275 -41 91.894318
-12.975 -41 95.429611
-59.625 -41 97.382988
-73.275002 -41 97.502502
67.574997 -41 75.767601
41.474998 -41 83.520203
19.725 -41 91.747299
-16.125 -41 94.032204
-69.675003 -41 97.141998
-86.324997 -41 90.060997
70.125 -40 77.376129
44.625 -40 86.352852
22.575001 -40 91.92144
-12.525 -40 95.419777
67.275002 -40 76.052299
40.875 -40 83.6297
20.475 -40 91.725403
-16.275 -40 93.973801
69.824997 -39 77.590485
44.325001 -39 86.498756
22.424999 -39 91.977669
-12.225 -39 95.378914
66.525002 -39 76.256699
39.974998 -39 83.8414
20.924999 -39 91.813004
-15.525 -39 93.915398
69.375 -38 77.861649
43.875 -38 86.670502
22.575001 -38 92.049355
-11.775 -38 95.354103
-59.025002 -38 97.378967
66.224998 -38 76.577904
40.275002 -38 83.980103
20.924999 -38 91.820297
-15.225 -38 93.8862
-68.474998 -38 97.105499
68.925003 -37 78.112442
43.575001 -37 86.857277
22.424999 -37 92.080574
-11.325 -37 95.328529
65.925003 -37 76.789597
39.525002 -37 84.126099
20.625 -37 91.886002
-14.025 -37 93.8862
68.625 -36 78.401428
43.125 -36 87.050514
22.424999 -36 92.151146
-11.025 -36 95.262108
65.625 -36 77.074303
38.775002 -36 84.286697
20.625 -36 91.929802
-14.025 -36 93.878899
68.175003 -35 78.63987
42.674999 -35 87.189285
22.575001 -35 92.202637
-10.575 -35 95.286186
65.324997 -35 77.337097
38.924999 -35 84.491096
20.625 -35 92.017403
-13.875 -35 93.725601
67.875 -34 78.890244
42.375 -34 87.346619
-10.125 -34 95.211304
-58.875 -34 97.385422
65.025002 -34 77.578003
37.875 -34 84.585999
-13.125 -34 93.7621
-69.074997 -34 97.105499
67.425003 -33 79.107407
41.924999 -33 87.505157
22.424999 -33 92.306755
-9.6750002 -33 95.174133
64.275002 -33 77.753197
37.724998 -33 84.753899
20.775 -33 92.083099
-12.975 -33 93.681801
67.125 -32 79.346085
41.474998 -32 87.658379
22.275 -32 92.334015
-9.2250004 -32 95.144508
-58.125 -32 97.357742
63.674999 -32 77.9795
37.275002 -32 84.936401
19.875 -32 92.1707
-12.375 -32 93.601501
-68.324997 -32 97.083603
66.675003 -31 79.575508
41.174999 -31 87.822929
22.275 -31 92.400429
-8.9250002 -31 95.147987
-58.275002 -31 97.332932
63.674999 -31 78.205803
37.275002 -31 84.980202
18.825001 -31 92.148804
-11.625 -31 93.630699
-69.824997 -31 97.083603
66.375 -30 79.835518
40.724998 -30 87.959328
-8.3249998 -30 95.090714
-52.875 -30 97.37632
-73.425003 -30 97.427528
86.025002 -30 76.262367
65.925003 -30 80.03746
40.424999 -30 88.084084
22.275 -30 92.498009
-7.875 -30 95.088882
-65.175003 -30 97.156441
63.375 -30 78.366402
36.825001 -30 85.184601
-11.325 -30 93.513901
-69.224998 -30 96.974098
3.4028235e+38 -30 3.4028235e+38
86.025002 -30 71.402199
63.375 -30 78.366402
36.825001 -30 85.184601
18.225 -30 92.207199
-11.325 -30 93.513901
-69.224998 -30 96.974098
65.474998 -29 80.264999
39.974998 -29 88.250443
22.125 -29 92.537025
-7.4250002 -29 95.029274
-52.575001 -29 97.370888
62.025002 -29 78.811699
35.625 -29 85.418198
18.075001 -29 92.280197
-10.575 -29 93.565002
-68.625 -29 97.0252
65.025002 -28 80.495651
39.525002 -28 88.390411
22.125 -28 92.584007
-6.8249998 -28 95.005119
-61.875 -28 97.181122
62.174999 -28 79.089104
35.174999 -28 85.571503
18.225 -28 92.2948
-9.9750004 -28 93.5942
-68.324997 -28 96.966797
64.724998 -27 80.702278
39.075001 -27 88.549812
22.125 -27 92.616013
-6.0749998 -27 94.936447
-55.575001 -27 97.284187
61.724998 -27 79.264297
34.424999 -27 85.732101
18.225 -27 92.360497
-9.375 -27 93.616096
-68.625 -27 96.915703
64.275002 -26 80.915298
38.775002 -26 88.68792
22.125 -26 92.641449
-5.3249998 -26 94.792427
-51.974998 -26 97.32058
61.424999 -26 79.497902
34.275002 -26 85.870796
18.525 -26 92.433502
-8.4750004 -26 93.696404
-69.375 -26 96.9011
63.974998 -25 81.126869
38.325001 -25 88.831924
22.275 -25 92.65834
-4.2750001 -25 94.655724
-54.674999 -25 97.257492
60.974998 -25 79.651199
34.275002 -25 85.958397
18.975 -25 92.382401
-7.875 -25 93.783997
-69.074997 -25 96.842697
63.674999 -24 81.31324
38.025002 -24 88.961693
22.275 -24 92.682014
-3.075 -24 94.481354
-57.974998 -24 97.111343
60.525002 -24 79.8629
33.825001 -24 86.075203
17.924999 -24 92.455399
-6.0749998 -24 93.922699
-69.375 -24 96.784302
63.224998 -23 81.523956
37.575001 -23 89.088882
22.424999 -23 92.723877
-1.875 -23 94.332573
60.075001 -23 80.059998
33.375 -23 86.170097
18.975 -23 92.4627
-5.4749999 -23 94.112503
62.924999 -22 81.686256
37.125 -22 89.2173
22.424999 -22 92.739235
59.775002 -22 80.184097
32.924999 -22 86.257698
18.075001 -22 92.470001
62.474998 -21 81.885193
36.825001 -21 89.335335
22.275 -21 92.752953
59.025002 -21 80.439598
32.625 -21 86.432899
19.875 -21 92.440804
62.025002 -20 82.068497
36.375 -20 89.454575
22.275 -20 92.767403
58.724998 -20 80.563698
32.174999 -20 86.542397
18.225 -20 92.484596
61.724998 -19 82.22683
35.924999 -19 89.590302
22.275 -19 92.767288
58.424999 -19 80.760803
31.875 -19 86.629997
18.375 -19 92.484596
61.275002 -18 82.443138
35.625 -18 89.686653
22.125 -18 92.783806
58.125 -18 80.899498
31.125 -18 86.695702
19.275 -18 92.484596
89.025002 -17 67.836418
60.825001 -17 82.611725
35.325001 -17 89.806175
21.975 -17 92.753609
-29.924999 -17 96.344086
-50.474998 -17 96.946693
88.125 -17 67.591599
57.525002 -17 81.045502
30.375 -17 86.848999
18.825001 -17 92.455399
-32.474998 -17 96.141899
-71.925003 -17 95.784203
88.724998 -16 66.912453
88.425003 -16 66.700996
89.175003 -15 66.295593
-67.425003 -15 96.230499
-95.175003 -15 73.397049
90.525002 -15 68.397377
80.474998 -15 73.098198
88.574997 -15 66.131599
-94.574997 -15 79.001503
3.4028235e+38 -15 3.4028235e+38
90.074997 -15 65.8834
80.474998 -15 72.511803
80.775002 -14 74.883476
59.325001 -14 83.202728
33.674999 -14 90.177109
-28.275 -14 96.12973
-47.775002 -14 96.696831
78.375 -14 73.935303
56.025002 -14 81.644096
29.174999 -14 87.068001
-31.125 -14 95.835297
-68.625 -14 96.1054
79.574997 -13 75.611092
59.025002 -13 83.317535
33.224998 -13 90.273666
-27.975 -13 96.067482
-44.025002 -13 96.695885
77.175003 -13 74.533897
55.275002 -13 81.680603
29.025 -13 87.170197
-30.225 -13 95.7696
-66.974998 -13 96.076202
78.675003 -12 76.088211
58.724998 -12 83.500122
32.775002 -12 90.334778
-27.525 -12 95.988029
-49.275002 -12 96.547813
76.125 -12 75.161697
54.974998 -12 81.885002
28.575001 -12 87.3162
-30.674999 -12 95.747704
-67.574997 -12 96.054298
77.625 -11 76.670914
58.125 -11 83.638763
32.474998 -11 90.460037
-27.225 -11 95.944519
-47.775002 -11 96.50808
75.675003 -11 75.650803
54.525002 -11 82.001801
27.225 -11 87.389198
-29.775 -11 95.6455
-68.925003 -11 95.9813
76.574997 -10 77.060936
57.825001 -10 83.728958
32.174999 -10 90.523537
-26.775 -10 95.896294
74.175003 -10 75.986603
54.525002 -10 82.0383
27.674999 -10 87.411102
-29.625 -10 95.623596
75.974998 -9 77.369293
57.375 -9 83.875198
31.575001 -9 90.621712
-26.325001 -9 95.841797
-47.775002 -9 96.385345
73.574997 -9 76.395401
54.075001 -9 82.198898
27.225 -9 87.462196
-28.725 -9 95.4776
-69.375 -9 95.879097
74.925003 -8 77.75071
56.924999 -8 84.003578
31.275 -8 90.705894
-26.025 -8 95.75209
-40.125 -8 96.381134
72.675003 -8 76.665497
53.174999 -8 82.301102
26.174999 -8 87.571701
-29.325001 -8 95.448402
-69.525002 -8 95.849899
74.324997 -7 78.04213
56.625 -7 84.116974
30.825001 -7 90.7649
-25.424999 -7 95.685631
72.224998 -7 76.950203
53.174999 -7 82.344902
26.325001 -7 87.571701
-27.525 -7 95.3097
73.875 -6 78.251389
56.174999 -6 84.251785
30.525 -6 90.828972
-24.975 -6 95.616547
71.625 -6 77.147301
53.025002 -6 82.381401
26.174999 -6 87.637398
-27.375 -6 95.295097
73.275002 -5 78.449516
55.875 -5 84.317474
30.075001 -5 90.885864
-24.674999 -5 95.523552
-57.075001 -5 95.942719
71.324997 -5 77.359001
52.275002 -5 82.542
25.875 -5 87.673897
-26.775 -5 95.163696
-69.974998 -5 95.594398
72.824997 -4 78.671631
56.025002 -4 84.280014
29.775 -4 90.93367
-23.924999 -4 95.463684
70.875 -4 77.541496
51.974998 -4 82.593102
24.674999 -4 87.695801
-26.475 -4 95.090698
72.224998 -3 78.855316
56.174999 -3 84.20826
29.475 -3 90.954231
-23.475 -3 95.388489
70.275002 -3 77.738602
51.525002 -3 82.6661
24.674999 -3 87.695801
-25.725 -3 95.003098
71.625 -2 79.066452
56.325001 -2 84.139816
53.474998 -2 83.586647
28.875 -2 91.013573
-23.325001 -2 95.302956
-53.924999 -2 95.780891
69.675003 -2 77.964897
54.224998 -2 83.162498
51.075001 -2 82.731796
24.075001 -2 87.768799
-25.875 -2 94.908203
-69.224998 -2 95.3097
71.175003 -1 79.275787
56.325001 -1 84.103073
53.025002 -1 83.981674
28.575001 -1 91.083054
-23.025 -1 95.205681
-65.925003 -1 95.412964
-73.425003 -1 95.615631
92.925003 -1 71.623688
70.724998 -1 79.458931
56.474998 -1 84.053497
53.025002 -1 84.471443
28.125 -1 91.142319
-22.275 -1 95.122772
-56.025002 -1 95.561874
69.224998 -1 78.235001
54.525002 -1 82.965401
50.775002 -1 82.790199
23.924999 -1 87.849098
-25.125 -1 94.733002
-68.625 -1 95.156403
3.4028235e+38 -1 3.4028235e+38
92.025002 -1 64.8395
69.224998 -1 78.235001
54.525002 -1 82.965401
50.775002 -1 82.790199
23.924999 -1 87.849098
-25.125 -1 94.733002
-68.625 -1 95.156403
70.125 0 79.615952
56.625 0 84.014832
53.174999 0 84.850853
27.674999 0 91.186996
-21.825001 0 95.017929
-54.375 0 95.551949
68.025002 0 78.614601
54.825001 0 83.031097
49.575001 0 82.958099
23.325001 0 87.841797
-24.674999 0 94.594299
-66.375 0 95.076103
69.375 1 79.823936
56.775002 1 83.963089
52.875 1 85.059402
27.375 1 91.258888
-21.674999 1 94.902725
-53.325001 1 95.454994
67.574997 1 78.7752
54.974998 1 82.972702
49.275002 1 83.031097
22.575001 1 87.885597
-25.424999 1 94.506699
-70.574997 1 94.988503
68.925003 2 80.035042
56.775002 2 83.901031
52.575001 2 85.168831
26.924999 2 91.286125
-21.075001 2 94.821899
-54.825001 2 95.34243
66.675003 2 78.921204
54.974998 2 82.885101
48.974998 2 83.053001
22.275 2 87.907501
-24.674999 2 94.375298
-69.525002 2 94.842499
68.324997 3 80.215958
56.924999 3 83.823822
52.125 3 85.264565
26.475 3 91.28624
-20.775 3 94.71669
-54.375 3 95.222801
66.375 3 79.118301
55.125 3 82.688004
47.924999 3 83.1698
21.674999 3 87.907501
-23.174999 3 94.229301
-69.074997 3 94.747597
67.724998 4 80.39312
57.075001 4 83.770752
51.825001 4 85.332428
26.025 4 91.309509
-20.174999 4 94.632301
-53.174999 4 95.141273
65.925003 4 79.2351
55.424999 4 82.739098
48.075001 4 83.264702
21.525 4 87.922096
-23.025 4 94.127098
-69.224998 4 94.594299
67.275002 5 80.576561
57.224998 5 83.712036
51.375 5 85.427895
25.575001 5 91.340805
-19.725 5 94.5429
-53.025002 5 95.063133
65.175003 5 79.3592
55.424999 5 82.571198
48.075001 5 83.308502
20.924999 5 87.965897
-22.575001 5 94.017601
-70.425003 5 94.462898
66.375 6 80.733681
57.375 6 83.651321
50.924999 6 85.509674
25.125 6 91.38662
-19.275 6 94.408424
-52.125 6 94.952179
65.324997 6 79.987
55.575001 6 82.556602
47.174999 6 83.374199
20.475 6 88.031601
-21.975 6 93.864304
-69.675003 6 94.302299
57.525002 7 83.590668
50.474998 7 85.579254
24.525 7 91.433632
-18.674999 7 94.315941
-50.325001 7 94.880493
55.724998 7 82.505501
46.875 7 83.388802
19.275 7 88.148399
-21.975 7 93.776703
-70.574997 7 94.229301
57.674999 8 83.519913
50.174999 8 85.637215
23.775 8 91.473404
-18.525 8 94.225281
55.875 8 82.498199
45.974998 8 83.498299
19.575001 8 88.3601
-21.075001 8 93.608803
57.825001 9 83.442696
49.724998 9 85.718689
22.875 9 91.546829
-18.075001 9 94.098434
-50.625 9 94.65696
55.875 9 82.352203
46.125 9 83.5056
18.375 9 88.5718
-21.075001 9 93.499298
-70.574997 9 93.951897
82.724998 10 73.264816
57.974998 10 83.398804
49.275002 10 85.774704
22.575001 10 91.512856
-17.775 10 93.987022
-49.575001 10 94.572754
82.125 10 72.978996
55.875 10 82.169701
45.674999 10 83.542099
17.174999 10 88.849197
-21.075001 10 93.389801
-69.525002 10 93.798599
80.175003 11 75.097374
58.125 11 83.319206
48.825001 11 85.827972
20.025 11 91.335037
-17.475 11 93.844879
-50.174999 11 94.379745
76.875 11 74.365997
56.174999 11 82.1259
45.075001 11 83.556702
15.825 11 89.272598
-21.225 11 93.229202
-70.574997 11 93.6745
78.224998 12 75.997719
58.125 12 83.229904
48.525002 12 85.881584
17.924999 12 91.429909
-16.875 12 93.739365
-50.625 12 94.272873
74.625 12 75.125198
56.325001 12 82.111298
44.775002 12 83.622398
14.925 12 89.8274
-19.725 12 93.0905
-70.574997 12 93.462799
76.724998 13 76.568405
58.275002 13 83.128448
48.075001 13 85.96917
14.925 13 91.304604
-16.575001 13 93.584991
-47.924999 13 94.201363
73.425003 13 75.585098
56.474998 13 82.0821
44.474998 13 83.585899
12.825 13 90.7034
-20.475 13 92.944504
-70.125 13 93.346001
75.824997 14 76.942215
58.424999 14 83.091644
47.775002 14 86.008278
22.575001 14 91.32209
-16.125 14 93.48674
-46.875 14 94.079453
-73.425003 14 93.396477
-85.875 14 88.624123
93.675003 14 70.512207
74.175003 14 77.475235
58.424999 14 82.992134
47.325001 14 86.099815
22.275 14 91.2985
-15.975 14 93.365135
-53.625 14 93.865166
72.074997 14 75.993896
56.325001 14 81.8339
42.974998 14 83.615097
17.924999 14 90.944298
-18.375 14 92.645203
-71.025002 14 92.937202
-84.675003 14 86.995003
3.4028235e+38 14 3.4028235e+38
93.675003 14 63.467098
72.074997 14 75.993896
56.325001 14 81.8339
42.974998 14 83.615097
17.924999 14 90.944298
-18.375 14 92.645203
-84.675003 14 86.995003
73.425003 15 77.788567
58.575001 15 82.956566
46.875 15 86.126648
22.275 15 91.264595
-15.525 15 93.266441
-49.875 15 93.832649
70.425003 15 76.577904
56.474998 15 81.819298
42.375 15 83.666199
18.075001 15 90.907799
-18.075001 15 92.550301
-85.275002 15 86.286903
72.525002 16 78.048378
58.724998 16 82.88884
46.424999 16 86.18882
21.975 16 91.18869
-15.075 16 93.112885
-45.825001 16 93.785042
-77.324997 16 91.613686
69.525002 16 76.745796
56.625 16 81.636803
42.224998 16 83.695396
20.174999 16 90.900497
-17.924999 16 92.382401
-75.375 16 91.185204
-85.574997 16 85.7248
71.775002 17 78.249718
58.724998 17 82.801125
46.125 17 86.231468
21.975 17 91.158249
-14.625 17 92.977844
-49.275002 17 93.612175
-75.824997 17 92.163246
68.625 17 76.9356
56.924999 17 81.600304
41.775002 17 83.688103
17.775 17 90.812897
-17.625 17 92.309402
-73.724998 17 91.594002
-85.875 17 85.3452
71.324997 18 78.400322
58.875 18 82.72599
45.674999 18 86.277222
21.975 18 91.05262
-14.325 18 92.837982
-46.275002 18 93.508583
68.324997 18 77.0159
57.075001 18 81.527298
41.325001 18 83.637001
18.075001 18 90.776398
-17.174999 18 92.105003
-72.224998 18 91.8787
70.724998 19 78.542503
58.875 19 82.618248
45.375 19 86.274178
21.975 19 91.009674
-13.725 19 92.698181
-49.125 19 93.357498
-73.875 19 92.564018
67.875 19 77.139999
56.924999 19 81.337502
40.575001 19 83.688103
17.775 19 90.5793
-16.424999 19 91.929802
-71.175003 19 91.944397
-86.025002 19 84.724701
70.425003 20 78.643623
59.025002 20 82.521904
44.924999 20 86.294594
21.975 20 90.918983
-13.275 20 92.546318
-47.625 20 93.220528
66.974998 20 77.125397
57.075001 20 81.2061
40.724998 20 83.637001
17.025 20 90.557404
-16.424999 20 91.761902
-69.974998 20 92.061203
69.974998 21 78.703949
59.174999 21 82.420815
44.474998 21 86.323013
21.975 21 90.842766
-12.975 21 92.415535
-47.625 21 93.088951
66.675003 21 77.242203
57.375 21 81.235298
39.974998 21 83.666199
17.625 21 90.499001
-16.275 21 91.630501
-72.224998 21 91.951698
69.525002 22 78.79599
59.174999 22 82.31691
44.025002 22 86.340294
21.975 22 90.778954
-12.525 22 92.248085
-45.224998 22 92.994614
66.224998 22 77.300598
57.525002 22 81.1623
39.825001 22 83.615097
17.625 22 90.447899
-15.675 22 91.455299
-70.574997 22 91.747299
69.074997 23 78.861084
59.474998 23 82.244797
43.575001 23 86.337761
21.975 23 90.673599
-12.225 23 92.140228
-44.775002 23 92.894615
65.775002 23 77.359001
57.525002 23 80.9506
39.674999 23 83.651604
18.825001 23 90.367599
-14.775 23 91.258202
-71.324997 23 91.623199
68.775002 24 78.951477
59.474998 24 82.090172
43.125 24 86.387405
21.825001 24 90.592545
-11.925 24 91.971718
-47.025002 24 92.708549
65.625 24 77.3955
57.525002 24 80.790001
39.075001 24 83.615097
18.225 24 90.250801
-14.775 24 91.126801
-71.025002 24 91.462601
68.324997 25 78.990166
59.474998 25 81.934845
42.825001 25 86.401352
21.825001 25 90.525002
-11.625 25 91.835854
-44.924999 25 92.606987
64.875 25 77.461197
57.825001 25 80.760803
38.474998 25 83.600502
18.375 25 90.1632
-15.075 25 90.988098
-70.275002 25 91.272797
67.875 26 79.065323
59.325001 26 81.702873
42.375 26 86.383064
21.975 26 90.472984
-11.025 26 91.681122
-45.375 26 92.479607
64.425003 26 77.504997
57.825001 26 80.607498
37.724998 26 83.585899
17.625 26 90.104797
-14.475 26 90.842102
-71.324997 26 91.119499
67.425003 27 79.0867
42.075001 27 86.415543
21.975 27 90.362801
-10.575 27 91.524963
-46.424999 27 92.310799
64.275002 27 77.578003
37.575001 27 83.578598
19.275 27 90.009903
-12.975 27 90.652298
-69.974998 27 90.900497
67.125 28 79.170822
41.775002 28 86.371674
21.975 28 90.275169
-10.125 28 91.367706
-44.474998 28 92.208969
63.674999 28 77.621803
37.275002 28 83.512901
17.775 28 89.915001
-13.875 28 90.462502
-71.025002 28 90.754501
66.675003 29 79.204185
41.174999 29 86.388191
21.975 29 90.154434
-9.8249998 29 91.249207
-44.174999 29 92.057793
-74.025002 29 90.762947
92.775002 29 68.419617
66.224998 29 79.264839
40.875 29 86.358032
21.825001 29 90.062843
-9.5249996 29 91.045708
-44.625 29 91.91909
62.775002 29 77.5634
36.075001 29 83.374199
18.975 29 89.674103
-12.825 29 90.112099
-70.574997 29 90.367599
3.4028235e+38 29 3.4028235e+38
92.775002 29 64.197098
62.775002 29 77.5634
36.075001 29 83.374199
18.975 29 89.674103
-12.825 29 90.112099
-70.574997 29 90.367599
65.775002 30 79.284485
40.424999 30 86.295166
-8.7749996 30 90.902245
-47.025002 30 91.711761
62.325001 30 77.607201
36.075001 30 83.388802
-11.475 30 89.966103
-71.925003 30 90.170502
65.474998 31 79.353233
40.125 31 86.285538
21.825001 31 89.850861
-8.4750004 31 90.796638
-44.025002 31 91.636658
62.174999 31 77.651001
35.625 31 83.352303
18.975 31 89.462402
-11.325 31 89.842003
-70.425003 31 89.9515
64.875 32 79.378662
39.674999 32 86.290939
-8.3249998 32 90.653175
-46.724998 32 91.435097
61.275002 32 77.7313
34.424999 32 83.315804
-12.075 32 89.644897
-71.025002 32 89.7836
64.574997 33 79.464012
39.224998 33 86.319305
21.825001 33 89.66571
-6.9749999 33 90.502548
61.275002 33 77.702103
34.575001 33 83.250099
18.674999 33 89.236099
-10.875 33 89.411301
90.074997 34 65.604111
64.125 34 79.488014
38.775002 34 86.285698
21.825001 34 89.613152
-7.2750001 34 90.355324
88.574997 34 65.262901
60.974998 34 77.804298
34.275002 34 83.220901
18.375 34 89.148499
-10.875 34 89.214203
90.824997 35 64.997101
63.825001 35 79.540245
38.325001 35 86.279572
21.975 35 89.472
-6.5250001 35 90.176392
-44.625 35 91.050789
89.175003 35 64.518303
60.674999 35 77.804298
33.974998 35 83.177101
18.075001 35 88.966003
-10.725 35 89.097397
-70.875 35 89.1558
83.025002 36 71.594452
63.375 36 79.541473
37.875 36 86.213615
21.674999 36 89.332893
-6.5250001 36 90.043297
81.375 36 71.044502
59.775002 36 77.694801
32.924999 36 83.0895
17.924999 36 88.871101
-10.425 36 88.878403
81.074997 37 72.723831
63.075001 37 79.546005
37.575001 37 86.176369
21.825001 37 89.232727
-6.2249999 37 89.88855
-44.025002 37 90.731209
78.525002 37 71.767197
59.474998 37 77.709396
32.474998 37 82.994598
18.225 37 88.768898
-9.2250004 37 88.630203
-71.625 37 88.725098
79.724998 38 73.358429
62.625 38 79.561058
37.125 38 86.133743
21.975 38 89.110245
-5.7750001 38 89.720299
77.175003 38 72.292801
58.875 38 77.702103
32.474998 38 82.980003
18.075001 38 88.600998
-9.6750002 38 88.542603
78.525002 39 73.768677
62.174999 39 79.597893
36.674999 39 86.094933
21.825001 39 88.980194
-5.3249998 39 89.584633
76.125 39 72.672401
58.875 39 77.723999
32.325001 39 82.943497
17.625 39 88.506104
-10.275 39 88.389297
77.474998 40 74.13929
61.724998 40 79.619576
36.375 40 86.068321
-4.875 40 89.391708
75.224998 40 72.978996
57.974998 40 77.665604
31.875 40 82.834
-8.3249998 40 88.308998
76.574997 41 74.428421
61.724998 41 79.596764
35.924999 41 86.034615
-4.125 41 89.19046
74.175003 41 73.344002
57.825001 41 77.636398
31.275 41 82.848602
-8.1750002 41 88.272499
75.675003 42 74.65274
61.724998 42 79.433014
35.625 42 86.008621
-3.675 42 89.0886
-42.825001 42 89.987274
73.275002 42 73.475403
57.525002 42 77.629097
30.525 42 82.782898
-8.0249996 42 88.1922
-72.675003 42 86.827103
75.074997 43 74.802193
61.875 43 79.288033
35.025002 43 85.94445
21.525 43 88.558754
-2.7750001 43 88.876953
-40.875 43 89.812042
72.675003 43 73.679802
56.924999 43 77.592598
30.375 43 82.658798
17.625 43 87.980499
-6.8249998 43 88.155701
-71.025002 43 87.016899
74.324997 44 74.999245
62.025002 44 79.128632
58.875 44 78.5756
34.724998 44 85.910957
21.075001 44 88.364517
-2.0250001 44 88.712067
-41.775002 44 89.651207
-74.175003 44 87.315666
92.474998 44 65.173706
73.875 44 75.09066
62.025002 44 78.965462
58.575001 44 78.862366
34.275002 44 85.848938
20.924999 44 88.166817
-2.325 44 88.595642
-42.075001 44 89.497337
72.224998 44 73.789299
60.075001 44 77.964897
55.875 44 77.570702
29.625 44 82.578499
16.275 44 87.724998
-7.7249999 44 88.184898
-70.875 44 86.987701
3.4028235e+38 44 3.4028235e+38
91.125 44 62.4524
72.224998 44 73.789299
60.075001 44 77.964897
55.875 44 77.570702
29.625 44 82.578499
16.275 44 87.724998
-7.7249999 44 88.184898
-70.875 44 86.987701
73.275002 45 75.178818
62.174999 45 78.810463
58.424999 45 79.172318
33.974998 45 85.790398
20.475 45 87.978317
-3.2249999 45 88.476715
71.025002 45 73.993698
60.075001 45 77.716698
55.575001 45 77.556099
29.475 45 82.476303
16.275 45 87.652
-7.2750001 45 88.2798
72.675003 46 75.240021
62.325001 46 78.645638
58.575001 46 79.580307
33.525002 46 85.720467
-39.825001 46 89.174667
70.574997 46 74.022903
60.525002 46 77.614502
55.275002 46 77.497704
28.275 46 82.403297
-71.775002 46 86.484001
71.775002 47 75.344337
62.474998 47 78.506218
58.424999 47 79.639671
33.075001 47 85.653915
19.725 47 87.553879
70.724998 47 74.650703
60.525002 47 77.446602
54.825001 47 77.534203
28.424999 47 82.308403
15.225 47 87.338097
62.474998 48 78.370644
58.125 48 79.67878
32.625 48 85.585968
18.225 48 87.320862
60.674999 48 77.315201
54.075001 48 77.468498
27.825001 48 82.279198
14.925 48 87.140999
62.474998 49 78.22052
57.674999 49 79.689392
32.174999 49 85.580673
-39.375 49 88.684082
60.825001 49 77.176498
53.775002 49 77.402802
27.375 49 82.228104
-72.824997 49 85.695602
62.775002 50 78.033913
57.375 50 79.648209
31.725 50 85.501152
60.825001 50 76.8918
53.325001 50 77.359001
26.475 50 82.147797
62.625 51 77.889587
56.924999 51 79.633133
31.424999 51 85.447891
61.125 51 76.804199
52.875 51 77.359001
25.875 51 82.074799
62.924999 52 77.703339
56.474998 52 79.650665
30.975 52 85.368568
61.125 52 76.6436
52.575001 52 77.315201
26.174999 52 81.921501
63.075001 53 77.55088
56.174999 53 79.617645
30.525 53 85.326347
-26.625 53 87.909081
61.125 53 76.329697
52.275002 53 77.249496
26.025 53 81.870399
-29.775 53 87.615501
63.075001 54 77.375778
55.724998 54 79.580704
30.225 54 85.237923
-24.375 54 87.765533
61.424999 54 76.322403
51.974998 54 77.205704
24.975 54 81.797401
-29.625 54 87.432999
63.375 55 77.201813
55.424999 55 79.546288
29.775 55 85.170387
-25.275 55 87.56749
61.275002 55 75.972
51.075001 55 77.110802
24.674999 55 81.7463
-29.475 55 87.235901
63.375 56 77.051003
54.974998 56 79.524902
29.475 56 85.07431
-25.575001 56 87.392464
61.575001 56 75.950104
50.924999 56 77.052399
24.375 56 81.593002
-30.975 56 87.0242
63.375 57 76.867996
54.525002 57 79.46563
29.025 57 85.004829
-24.825001 57 87.259514
61.575001 57 75.796799
50.174999 57 77.008598
23.775 57 81.461601
-28.725 57 86.834396
63.674999 58 76.680832
54.075001 58 79.459129
28.424999 58 84.938202
-24.225 58 87.062149
-34.575001 58 87.143059
-74.474998 58 83.563309
63.674999 58 76.494957
53.775002 58 79.443237
28.125 58 84.879166
-22.725 58 86.926399
61.724998 58 75.439102
49.424999 58 76.906403
23.025 58 81.359398
-27.825001 58 86.432899
-72.974998 58 83.279297
3.4028235e+38 58 3.4028235e+38
61.724998 58 75.439102
49.424999 58 76.906403
23.025 58 81.359398
-27.825001 58 86.432899
63.825001 59 76.323616
53.325001 59 79.413536
27.674999 59 84.830727
-22.575001 59 86.726074
61.724998 59 75.1763
49.275002 59 76.848
21.525 59 81.271797
-27.674999 59 86.264999
63.825001 60 76.140343
53.025002 60 79.362366
27.225 60 84.741493
-22.424999 60 86.611809
61.875 60 75.0084
48.825001 60 76.760399
22.275 60 81.176903
-26.924999 60 86.111702
63.825001 61 75.973114
52.575001 61 79.287659
26.775 61 84.67778
-13.575 61 86.549789
62.174999 61 74.913498
48.224998 61 76.694702
21.375 61 81.060097
-26.325001 61 85.878098
80.324997 62 69.292465
63.974998 62 75.752327
52.125 62 79.25322
26.475 62 84.574074
-16.275 62 86.324684
76.875 62 68.796097
62.025002 62 74.6726
48.224998 62 76.636299
20.475 62 81.016296
-26.325001 62 85.688301
78.074997 63 70.146919
64.125 63 75.57856
51.674999 63 79.197426
26.025 63 84.519211
-21.975 63 86.099037
74.925003 63 69.336304
62.174999 63 74.482803
47.025002 63 76.5998
19.875 63 80.884903
-26.025 63 85.403603
76.574997 64 70.628052
64.125 64 75.39048
51.375 64 79.134018
25.575001 64 84.427429
-21.674999 64 85.8731
73.275002 64 69.7743
62.174999 64 74.176201
46.575001 64 76.483002
19.875 64 80.804604
-27.075001 64 85.242996
75.224998 65 71.044357
63.974998 65 75.228973
51.075001 65 79.091866
25.275 65 84.355095
-18.825001 65 85.794014
71.925003 65 70.058998
62.474998 65 74.103203
46.724998 65 76.410004
20.025 65 80.665901
-26.775 65 84.994797
95.625 66 54.707279
71.775002 66 70.724068
63.525002 66 75.000313
-26.475 66 84.895935
94.275002 66 54.429699
70.425003 66 70.219597
62.625 66 73.9645
-86.324997 66 72.051903
73.125 67 71.584869
64.574997 67 74.846634
50.174999 67 78.988091
24.525 67 84.218185
-16.725 67 85.457481
69.974998 67 70.409401
62.625 67 73.650597
45.825001 67 76.271301
19.424999 67 80.476097
-26.475 67 84.680901
72.224998 68 71.717705
49.724998 68 78.931358
24.075001 68 84.106918
-18.525 68 85.277435
68.474998 68 70.431297
45.075001 68 76.205597
18.375 68 80.417702
-25.275 68 84.4692
71.474998 69 71.803764
64.125 69 74.170242
49.424999 69 78.894707
23.625 69 84.04351
-18.075001 69 85.116066
-30.674999 69 85.114731
67.875 69 70.4459
62.775002 69 73.285599
44.775002 69 76.059601
17.625 69 80.308197
-26.174999 69 84.293999
-74.324997 69 79.118301
70.875 70 71.864082
48.825001 70 78.819771
23.025 70 83.949799
-16.725 70 84.970146
-30.674999 70 84.941406
67.275002 70 70.482399
44.474998 70 76.0158
17.325001 70 80.227898
-25.875 70 84.0896
-73.275002 70 79.242401
70.275002 71 71.903214
48.525002 71 78.767387
22.725 71 83.837608
-17.625 71 84.794319
66.525002 71 70.482399
44.025002 71 75.993896
17.625 71 80.133003
-25.725 71 83.907097
69.824997 72 71.939735
48.075001 72 78.706985
22.275 72 83.757004
-16.725 72 84.603722
66.525002 72 70.4459
43.875 72 75.869797
16.725 72 80.169502
-22.875 72 83.7173
69.375 73 71.895302
47.775002 73 78.661018
21.674999 73 83.647316
-6.0749998 73 84.438866
-17.174999 73 84.44265
-29.625 73 84.423523
85.574997 73 67.953514
69.074997 73 71.873817
47.325001 73 78.592125
21.525 73 83.540123
-17.924999 73 84.273659
65.625 73 70.394798
42.974998 73 75.709198
16.424999 73 80.140297
-10.725 73 84.104202
-21.975 73 83.272003
3.4028235e+38 73 3.4028235e+38
85.574997 73 65.000099
65.625 73 70.394798
42.974998 73 75.709198
16.424999 73 80.140297
-21.975 73 83.272003
68.625 74 71.854286
47.025002 74 78.507156
21.375 74 83.401878
-16.725 74 84.108055
65.175003 74 70.256104
42.224998 74 75.614304
15.525 74 80.337402
-21.825001 74 83.125999
68.175003 75 71.806961
46.575001 75 78.418045
21.225 75 83.239334
-16.575001 75 83.956299
64.875 75 70.205002
42.075001 75 75.533997
13.725 75 80.4907
-21.825001 75 82.9216
67.875 76 71.751274
46.125 76 78.383156
21.225 76 83.117249
-16.875 76 83.79673
64.574997 76 70.205002
41.325001 76 75.453697
13.275 76 80.738899
-23.325001 76 82.7537
67.425003 77 71.727104
45.674999 77 78.293839
20.924999 77 83.003662
-15.825 77 83.648071
64.125 77 70.1539
41.174999 77 75.388
11.625 77 81.133102
-20.625 77 82.5858
66.974998 78 71.688622
45.375 78 78.233055
21.075001 78 82.844254
14.175 78 82.497887
-16.125 78 83.484413
63.525002 78 70.095497
40.875 78 75.3004
17.325001 78 82.330299
9.6750002 78 81.760902
-21.825001 78 82.3741
66.525002 79 71.623383
44.924999 79 78.191948
20.775 79 82.705536
-15.825 79 83.290054
63.075001 79 70.022499
40.424999 79 75.190903
17.325001 79 82.177002
-21.674999 79 82.184303
66.074997 80 71.595955
44.474998 80 78.095795
20.924999 80 82.574615
-15.375 80 83.118149
62.775002 80 69.9422
39.974998 80 75.139801
17.174999 80 82.0383
-20.325001 80 82.030998
65.775002 81 71.531418
44.174999 81 78.019737
20.775 81 82.432968
-15.075 81 82.943993
62.625 81 69.920303
39.825001 81 75.037598
15.525 81 81.965302
-19.725 81 81.782799
65.324997 82 71.490685
43.724998 82 77.960297
-14.325 82 82.797012
61.724998 82 69.8619
39.224998 82 74.971901
-21.975 82 81.636803
64.875 83 71.443436
43.275002 83 77.85453
-13.875 83 82.642326
61.424999 83 69.796204
38.625 83 74.869698
-18.525 83 81.505402
64.425003 84 71.3862
42.825001 84 77.818748
-12.825 84 82.468285
61.275002 84 69.723198
38.325001 84 74.818604
-18.225 84 81.293701
64.125 85 71.361122
42.375 85 77.762459
20.625 85 81.930893
-13.575 85 82.321526
60.375 85 69.6502
37.875 85 74.745598
16.875 85 81.468903
-18.375 85 81.103897
63.674999 86 71.305855
42.075001 86 77.725372
20.625 86 81.807922
-12.975 86 82.203049
60.075001 86 69.635597
37.424999 86 74.694504
16.875 86 81.374001
-17.475 86 80.979797
89.324997 88 54.911964
36.674999 88 74.691452
-9.2250004 88 81.799034
-17.475 88 80.701462
-82.275002 88 63.255074
89.324997 88 57.498131
79.425003 88 62.480473
89.025002 88 54.2472
36.224998 88 74.409798
-15.975 88 80.461502
-82.275002 88 70.314499
3.4028235e+38 88 3.4028235e+38
89.025002 88 54.2472
79.425003 88 61.9706
79.875 89 63.56049
62.025002 89 71.115677
40.275002 89 77.43782
-11.775 89 81.591454
77.474998 89 62.853901
58.275002 89 69.350899
35.325001 89 74.3806
-16.125 89 80.330101
78.525002 90 64.173172
61.575001 90 71.069443
39.974998 90 77.375137
-11.625 90 81.449013
76.275002 90 63.306499
58.125 90 69.277901
34.875 90 74.3368
-16.125 90 80.118401
77.474998 91 64.497353
61.275002 91 71.01107
39.525002 91 77.318321
20.475 91 81.019043
-11.175 91 81.287033
75.224998 91 63.6642
57.825001 91 69.1903
35.174999 91 74.198097
16.125 91 80.592903
-15.375 91 79.965103
76.425003 92 64.830368
60.825001 92 70.962372
39.075001 92 77.237152
-10.875 92 81.131203
74.025002 92 63.890499
56.924999 92 69.168404
33.974998 92 74.190804
-16.125 92 79.760696
75.375 93 65.086151
60.375 93 70.935333
38.775002 93 77.199409
-10.125 93 81.018303
72.974998 93 64.116798
56.474998 93 69.102699
33.974998 93 74.066704
-15.375 93 79.607399
74.625 94 65.31601
59.924999 94 70.878006
38.325001 94 77.150589
20.475 94 80.644913
-9.2250004 94 80.91053
72.675003 94 64.189796
56.325001 94 69.058899
33.674999 94 74.008301
15.225 94 80.235199
-15.375 94 79.512497
73.724998 95 65.42131
59.474998 95 70.846916
37.875 95 77.109741
20.475 95 80.527229
-9.375 95 80.775024
72.074997 95 64.467201
56.025002 95 69.015099
32.924999 95 73.928001
15.225 95 80.096497
-13.425 95 79.315399
73.275002 96 65.481949
59.174999 96 70.814049
37.424999 96 77.055351
20.475 96 80.401703
-8.7749996 96 80.662102
70.574997 96 64.452599
55.424999 96 68.985901
33.224998 96 74.008301
15.075 96 79.994301
-14.475 96 79.132896
72.675003 97 65.520058
58.875 97 70.701942
36.974998 97 76.973198
-8.0249996 97 80.526306
70.125 97 64.306602
54.825001 97 68.591698
32.025002 97 73.636002
-14.625 97 78.826302
