# .PCD v0.7 - Point Cloud Data file format
VERSION 0.7
FIELDS x y z
SIZE 4 4 4
TYPE F F F
COUNT 1 1 1
WIDTH 1708
HEIGHT 1
VIEWPOINT 0 0 0 1 0 0 0
POINTS 1708
DATA ascii
64.724998 25.281561 19.5795
64.574997 25.281561 19.5868
64.425003 25.281561 19.637899
64.275002 25.281561 19.645201
64.125 25.281561 19.645201
63.974998 25.281561 19.6817
63.825001 25.281561 19.637899
63.674999 25.281561 19.623301
63.525002 25.281561 19.645201
63.375 25.281561 19.688999
63.224998 25.281561 19.688999
63.075001 25.281561 19.6817
62.924999 25.281561 19.7036
62.775002 25.281561 19.6744
62.625 25.281561 19.6744
62.474998 25.281561 19.718201
62.325001 25.281561 19.761999
62.174999 25.281561 19.7474
62.025002 25.281561 19.740101
61.875 25.281561 19.805799
61.724998 25.281561 19.813101
61.575001 25.281561 19.791201
61.424999 25.281561 19.761999
61.275002 25.281561 19.761999
61.125 25.281561 19.761999
60.974998 25.281561 19.7693
60.825001 25.281561 19.791201
60.674999 25.281561 19.791201
60.525002 25.281561 19.7766
60.375 25.281561 19.761999
60.224998 25.281561 19.7766
60.075001 25.281561 19.783899
59.924999 25.281561 19.7985
59.775002 25.281561 19.8423
59.625 25.281561 19.8496
59.474998 25.281561 19.8423
59.325001 25.281561 19.8496
59.174999 25.281561 19.864201
59.025002 25.281561 19.9007
58.875 25.281561 19.9445
58.724998 25.281561 19.9445
58.575001 25.281561 19.908001
58.424999 25.281561 19.878799
58.275002 25.281561 19.886101
58.125 25.281561 19.8496
57.974998 25.281561 19.856899
57.825001 25.281561 19.8934
57.674999 25.281561 19.929899
57.525002 25.281561 19.8934
57.375 25.281561 19.856899
57.224998 25.281561 19.878799
57.075001 25.281561 19.886101
56.924999 25.281561 19.9007
56.775002 25.281561 19.9226
56.625 25.281561 19.9226
56.474998 25.281561 19.9007
56.325001 25.281561 19.8934
56.174999 25.281561 19.9007
54.375 25.281561 19.951799
54.224998 25.281561 20.002899
54.075001 25.281561 20.0905
53.924999 25.281561 20.0686
53.775002 25.281561 20.054001
53.625 25.281561 20.054001
53.474998 25.281561 20.0175
53.325001 25.281561 20.0175
53.174999 25.281561 20.024799
53.025002 25.281561 20.0467
52.875 25.281561 20.024799
52.724998 25.281561 20.010201
52.575001 25.281561 20.0175
52.424999 25.281561 20.0175
52.275002 25.281561 20.010201
52.125 25.281561 20.002899
51.974998 25.281561 19.9956
51.825001 25.281561 19.9956
51.674999 25.281561 19.9883
51.525002 25.281561 19.9664
51.375 25.281561 19.9664
51.224998 25.281561 19.981001
51.075001 25.281561 19.9956
50.924999 25.281561 20.002899
50.775002 25.281561 20.0175
50.625 25.281561 20.0175
50.474998 25.281561 19.9956
50.325001 25.281561 20.010201
50.174999 25.281561 20.032101
50.025002 25.281561 20.0394
49.875 25.281561 20.010201
49.724998 25.281561 19.9737
49.575001 25.281561 19.9737
49.424999 25.281561 19.9883
49.275002 25.281561 20.002899
49.125 25.281561 20.002899
48.974998 25.281561 20.002899
48.825001 25.281561 20.0394
48.674999 25.281561 20.054001
48.525002 25.281561 20.0394
48.375 25.281561 19.9956
48.224998 25.281561 19.9883
48.075001 25.281561 19.9664
47.924999 25.281561 19.937201
47.775002 25.281561 19.8934
47.625 25.281561 19.981001
47.474998 25.281561 20.032101
47.325001 25.281561 20.0613
47.174999 25.281561 20.0832
47.025002 25.281561 20.097799
46.875 25.281561 20.097799
46.724998 25.281561 20.0613
46.575001 25.281561 20.0467
46.424999 25.281561 20.054001
46.275002 25.281561 20.0832
46.125 25.281561 20.075899
45.974998 25.281561 20.0686
45.825001 25.281561 20.0686
45.674999 25.281561 20.0832
45.525002 25.281561 20.1124
45.375 25.281561 20.1416
45.224998 25.281561 20.170799
45.075001 25.281561 20.148899
44.924999 25.281561 20.1343
44.775002 25.281561 20.127001
44.625 25.281561 20.1562
44.474998 25.281561 20.054001
44.325001 25.281561 20.0175
44.174999 25.281561 20.0467
44.025002 25.281561 20.105101
43.875 25.281561 20.105101
43.724998 25.281561 20.0905
43.575001 25.281561 20.075899
43.424999 25.281561 20.0686
43.275002 25.281561 20.0905
43.125 25.281561 20.127001
42.974998 25.281561 20.0905
42.825001 25.281561 20.054001
42.674999 25.281561 20.032101
42.525002 25.281561 20.054001
42.375 25.281561 20.0686
42.224998 25.281561 20.0686
42.075001 25.281561 20.054001
41.924999 25.281561 20.032101
41.775002 25.281561 20.0394
41.625 25.281561 20.0613
41.474998 25.281561 20.0613
41.325001 25.281561 20.0467
41.174999 25.281561 20.032101
41.025002 25.281561 20.024799
40.875 25.281561 20.0832
40.724998 25.281561 20.097799
40.575001 25.281561 20.0832
40.424999 25.281561 20.0832
40.275002 25.281561 20.0905
40.125 25.281561 20.0905
39.974998 25.281561 20.0613
39.825001 25.281561 19.981001
39.674999 25.281561 19.981001
39.525002 25.281561 20.010201
39.375 25.281561 20.0394
39.224998 25.281561 20.0686
39.075001 25.281561 20.0905
38.924999 25.281561 20.105101
38.775002 25.281561 20.0832
38.625 25.281561 20.105101
38.474998 25.281561 20.1343
38.325001 25.281561 20.127001
38.174999 25.281561 20.0613
38.025002 25.281561 20.002899
37.875 25.281561 19.959101
37.724998 25.281561 19.951799
37.575001 25.281561 19.9664
37.424999 25.281561 20.010201
37.275002 25.281561 20.0686
37.125 25.281561 20.0613
36.974998 25.281561 20.024799
36.825001 25.281561 19.9737
36.674999 25.281561 20.002899
36.525002 25.281561 20.032101
36.375 25.281561 20.054001
36.224998 25.281561 20.0613
36.075001 25.281561 20.0686
35.924999 25.281561 20.0905
35.775002 25.281561 20.127001
35.625 25.281561 20.0467
35.474998 25.281561 20.0175
35.325001 25.281561 20.0175
35.174999 25.281561 20.0613
35.025002 25.281561 20.0394
34.875 25.281561 20.002899
34.724998 25.281561 19.981001
34.575001 25.281561 20.010201
34.424999 25.281561 20.024799
34.275002 25.281561 20.010201
34.125 25.281561 19.9664
33.974998 25.281561 19.9664
33.825001 25.281561 19.9883
33.674999 25.281561 20.024799
33.525002 25.281561 19.981001
33.375 25.281561 19.9664
33.224998 25.281561 19.959101
33.075001 25.281561 19.959101
32.924999 25.281561 20.024799
32.775002 25.281561 20.032101
32.625 25.281561 19.981001
32.474998 25.281561 19.981001
32.325001 25.281561 19.981001
32.174999 25.281561 19.981001
32.025002 25.281561 19.937201
31.875 25.281561 19.929899
31.725 25.281561 19.951799
31.575001 25.281561 19.9956
31.424999 25.281561 19.9956
31.275 25.281561 19.9883
31.125 25.281561 19.981001
30.975 25.281561 19.981001
30.825001 25.281561 19.9664
30.674999 25.281561 19.959101
30.525 25.281561 19.9445
30.375 25.281561 19.951799
30.225 25.281561 20.010201
30.075001 25.281561 20.0686
29.924999 25.281561 20.0905
29.775 25.281561 20.0175
29.625 25.281561 19.9664
29.475 25.281561 19.951799
29.325001 25.281561 19.9737
29.174999 25.281561 19.981001
29.025 25.281561 19.981001
28.875 25.281561 19.981001
28.725 25.281561 19.9153
28.575001 25.281561 19.6014
27.375 25.281561 19.886101
27.225 25.281561 19.9445
27.075001 25.281561 19.951799
26.924999 25.281561 19.9226
26.775 25.281561 19.929899
26.625 25.281561 19.9445
26.475 25.281561 19.9445
26.325001 25.281561 19.908001
26.174999 25.281561 19.8934
26.025 25.281561 19.886101
25.875 25.281561 19.9007
25.725 25.281561 19.8934
25.575001 25.281561 19.8934
25.424999 25.281561 19.908001
25.275 25.281561 19.9445
25.125 25.281561 19.9226
24.975 25.281561 19.886101
24.825001 25.281561 19.834999
24.674999 25.281561 19.791201
24.525 25.281561 19.8277
24.375 25.281561 19.8715
24.225 25.281561 19.8715
24.075001 25.281561 19.878799
23.924999 25.281561 19.864201
23.775 25.281561 19.8496
23.625 25.281561 19.878799
23.475 25.281561 19.886101
23.325001 25.281561 19.878799
23.174999 25.281561 19.878799
23.025 25.281561 19.8715
22.875 25.281561 19.856899
22.725 25.281561 19.8277
22.575001 25.281561 19.8423
22.424999 25.281561 19.8496
22.275 25.281561 19.8423
22.125 25.281561 19.805799
21.975 25.281561 19.805799
21.825001 25.281561 19.813101
21.674999 25.281561 19.7985
21.525 25.281561 19.805799
21.375 25.281561 19.813101
21.225 25.281561 19.813101
21.075001 25.281561 19.791201
20.924999 25.281561 19.7985
20.775 25.281561 19.805799
20.625 25.281561 19.791201
20.475 25.281561 19.791201
20.325001 25.281561 19.761999
20.174999 25.281561 19.7547
20.025 25.281561 19.813101
19.875 25.281561 19.7766
19.725 25.281561 19.761999
19.575001 25.281561 19.7474
19.424999 25.281561 19.6817
19.275 25.281561 19.7036
19.125 25.281561 19.740101
18.975 25.281561 19.7693
18.825001 25.281561 19.740101
18.674999 25.281561 19.740101
18.525 25.281561 19.7766
18.375 25.281561 19.7693
18.225 25.281561 19.7255
18.075001 25.281561 19.6817
17.924999 25.281561 19.6525
17.775 25.281561 19.696301
17.625 25.281561 19.718201
17.475 25.281561 19.710899
17.325001 25.281561 19.740101
17.174999 25.281561 19.7255
17.025 25.281561 19.696301
16.875 25.281561 19.6744
16.725 25.281561 19.645201
16.575001 25.281561 19.645201
16.424999 25.281561 19.6598
16.275 25.281561 19.5868
16.125 25.281561 19.6087
15.975 25.281561 19.6525
67.724998 26.217901 19.375099
67.574997 26.217901 19.3678
67.425003 26.217901 19.4116
67.275002 26.217901 19.4335
67.125 26.217901 19.4408
66.974998 26.217901 19.4408
66.824997 26.217901 19.4627
66.675003 26.217901 19.5065
66.525002 26.217901 19.5138
66.375 26.217901 19.5065
66.224998 26.217901 19.469999
66.074997 26.217901 19.4189
65.925003 26.217901 19.4554
65.775002 26.217901 19.4846
65.625 26.217901 19.499201
65.474998 26.217901 19.521099
65.324997 26.217901 19.5284
65.175003 26.217901 19.521099
65.025002 26.217901 19.477301
64.875 26.217901 19.5138
64.724998 26.217901 19.5868
64.574997 26.217901 19.667101
64.425003 26.217901 19.6014
64.275002 26.217901 19.6087
64.125 26.217901 19.6306
63.974998 26.217901 19.6306
63.825001 26.217901 19.6306
63.674999 26.217901 19.623301
63.525002 26.217901 19.6087
63.375 26.217901 19.6525
63.224998 26.217901 19.6598
63.075001 26.217901 19.645201
62.924999 26.217901 19.667101
62.775002 26.217901 19.696301
62.625 26.217901 19.718201
62.474998 26.217901 19.7474
62.325001 26.217901 19.710899
62.174999 26.217901 19.710899
62.025002 26.217901 19.7328
61.875 26.217901 19.740101
61.724998 26.217901 19.7766
61.575001 26.217901 19.7693
61.424999 26.217901 19.710899
61.275002 26.217901 19.7474
61.125 26.217901 19.7693
60.974998 26.217901 19.7766
60.825001 26.217901 19.7766
60.674999 26.217901 19.783899
60.525002 26.217901 19.7985
60.375 26.217901 19.7985
60.224998 26.217901 19.791201
60.075001 26.217901 19.7766
59.924999 26.217901 19.7693
59.775002 26.217901 19.7693
59.625 26.217901 19.813101
59.474998 26.217901 19.8496
59.325001 26.217901 19.834999
59.174999 26.217901 19.805799
59.025002 26.217901 19.783899
58.875 26.217901 19.783899
58.724998 26.217901 19.834999
58.575001 26.217901 19.8423
58.424999 26.217901 19.8496
58.275002 26.217901 19.8496
58.125 26.217901 19.864201
57.974998 26.217901 19.878799
57.825001 26.217901 19.8715
57.674999 26.217901 19.9153
57.525002 26.217901 19.9226
57.375 26.217901 19.9153
57.224998 26.217901 19.9226
57.075001 26.217901 19.8715
56.924999 26.217901 19.8496
56.775002 26.217901 19.856899
56.625 26.217901 19.8934
56.474998 26.217901 19.908001
56.325001 26.217901 19.9226
56.174999 26.217901 19.9445
56.025002 26.217901 19.937201
55.875 26.217901 19.7474
54.075001 26.217901 20.0467
53.924999 26.217901 20.054001
53.775002 26.217901 20.0613
53.625 26.217901 20.0613
53.474998 26.217901 20.024799
53.325001 26.217901 20.010201
53.174999 26.217901 20.010201
53.025002 26.217901 20.0394
52.875 26.217901 20.024799
52.724998 26.217901 20.032101
52.575001 26.217901 20.0613
52.424999 26.217901 20.105101
52.275002 26.217901 20.054001
52.125 26.217901 20.024799
51.974998 26.217901 20.075899
51.825001 26.217901 20.0686
51.674999 26.217901 20.054001
51.525002 26.217901 20.0394
51.375 26.217901 20.0394
51.224998 26.217901 20.010201
51.075001 26.217901 19.9737
50.924999 26.217901 19.9445
50.775002 26.217901 19.9445
50.625 26.217901 19.951799
50.474998 26.217901 19.9664
50.325001 26.217901 19.9664
50.174999 26.217901 19.9737
50.025002 26.217901 19.981001
49.875 26.217901 20.002899
49.724998 26.217901 20.002899
49.575001 26.217901 19.9956
49.424999 26.217901 20.002899
49.275002 26.217901 19.9956
49.125 26.217901 19.9883
48.974998 26.217901 19.981001
48.825001 26.217901 19.981001
48.674999 26.217901 19.9153
48.525002 26.217901 19.937201
48.375 26.217901 19.9956
48.224998 26.217901 19.9956
48.075001 26.217901 20.002899
47.924999 26.217901 20.0175
47.775002 26.217901 20.002899
47.625 26.217901 19.951799
47.474998 26.217901 19.908001
47.325001 26.217901 19.908001
47.174999 26.217901 19.9737
47.025002 26.217901 20.0175
46.875 26.217901 20.054001
46.724998 26.217901 20.0905
46.575001 26.217901 20.097799
46.424999 26.217901 20.054001
46.275002 26.217901 20.002899
46.125 26.217901 20.0613
45.974998 26.217901 20.0686
45.825001 26.217901 20.0686
45.674999 26.217901 20.097799
45.525002 26.217901 20.0686
45.375 26.217901 20.0467
45.224998 26.217901 20.0394
45.075001 26.217901 20.0394
44.924999 26.217901 20.1124
44.775002 26.217901 20.1635
44.625 26.217901 20.1343
44.474998 26.217901 20.105101
44.325001 26.217901 20.0905
44.174999 26.217901 20.0905
44.025002 26.217901 20.075899
43.875 26.217901 20.0686
43.724998 26.217901 20.0686
43.575001 26.217901 20.0686
43.424999 26.217901 20.0613
43.275002 26.217901 20.054001
43.125 26.217901 20.0467
42.974998 26.217901 20.075899
42.825001 26.217901 20.097799
42.674999 26.217901 20.0905
42.525002 26.217901 19.9883
42.375 26.217901 20.032101
42.224998 26.217901 20.0686
42.075001 26.217901 20.097799
41.924999 26.217901 20.097799
41.775002 26.217901 20.0686
41.625 26.217901 20.0467
41.474998 26.217901 20.0467
41.325001 26.217901 20.032101
41.174999 26.217901 20.032101
41.025002 26.217901 20.0467
40.875 26.217901 20.054001
40.724998 26.217901 20.054001
40.575001 26.217901 20.0394
40.424999 26.217901 20.0175
40.275002 26.217901 20.0175
40.125 26.217901 20.0394
39.974998 26.217901 20.0613
39.825001 26.217901 20.0613
39.674999 26.217901 20.0832
39.525002 26.217901 20.105101
39.375 26.217901 20.0832
39.224998 26.217901 20.0832
39.075001 26.217901 20.0613
38.924999 26.217901 20.010201
38.775002 26.217901 20.002899
38.625 26.217901 19.9956
38.474998 26.217901 19.9883
38.325001 26.217901 19.981001
38.174999 26.217901 20.024799
38.025002 26.217901 20.054001
37.875 26.217901 20.024799
37.724998 26.217901 20.010201
37.575001 26.217901 20.032101
37.424999 26.217901 20.0613
37.275002 26.217901 20.054001
37.125 26.217901 20.0613
36.974998 26.217901 20.0613
36.825001 26.217901 20.032101
36.674999 26.217901 20.0686
36.525002 26.217901 20.0467
36.375 26.217901 19.9956
36.224998 26.217901 19.9737
36.075001 26.217901 19.981001
35.924999 26.217901 19.9956
35.775002 26.217901 20.024799
35.625 26.217901 20.105101
35.474998 26.217901 20.1124
35.325001 26.217901 20.097799
35.174999 26.217901 20.119699
35.025002 26.217901 20.0905
34.875 26.217901 20.024799
34.724998 26.217901 19.9664
34.575001 26.217901 19.981001
34.424999 26.217901 20.010201
34.275002 26.217901 20.0394
34.125 26.217901 20.024799
33.974998 26.217901 20.002899
33.825001 26.217901 19.9883
33.674999 26.217901 19.9737
33.525002 26.217901 20.002899
33.375 26.217901 20.0175
33.224998 26.217901 20.032101
33.075001 26.217901 20.010201
32.924999 26.217901 20.0175
32.775002 26.217901 20.010201
32.625 26.217901 19.9664
32.474998 26.217901 19.9956
32.325001 26.217901 20.010201
32.174999 26.217901 19.9956
32.025002 26.217901 19.959101
31.875 26.217901 19.959101
31.725 26.217901 19.9883
31.575001 26.217901 20.032101
31.424999 26.217901 20.010201
31.275 26.217901 19.9883
31.125 26.217901 19.981001
30.975 26.217901 20.002899
30.825001 26.217901 20.054001
30.674999 26.217901 20.0686
30.525 26.217901 20.024799
30.375 26.217901 19.9737
30.225 26.217901 19.9737
30.075001 26.217901 19.981001
29.924999 26.217901 19.937201
29.775 26.217901 19.951799
29.625 26.217901 19.9737
29.475 26.217901 19.9664
29.325001 26.217901 19.9445
29.174999 26.217901 19.9737
29.025 26.217901 20.010201
28.875 26.217901 20.010201
28.725 26.217901 20.0175
28.575001 26.217901 20.002899
28.424999 26.217901 19.9007
27.075001 26.217901 19.8934
26.924999 26.217901 19.9007
26.775 26.217901 19.9153
26.625 26.217901 19.929899
26.475 26.217901 19.937201
26.325001 26.217901 19.9445
26.174999 26.217901 19.929899
26.025 26.217901 19.908001
25.875 26.217901 19.878799
25.725 26.217901 19.9153
25.575001 26.217901 19.9226
25.424999 26.217901 19.9153
25.275 26.217901 19.9007
25.125 26.217901 19.886101
24.975 26.217901 19.8934
24.825001 26.217901 19.9153
24.674999 26.217901 19.908001
24.525 26.217901 19.9007
24.375 26.217901 19.9007
24.225 26.217901 19.886101
24.075001 26.217901 19.878799
23.924999 26.217901 19.864201
23.775 26.217901 19.8423
23.625 26.217901 19.8496
23.475 26.217901 19.8496
23.325001 26.217901 19.8423
23.174999 26.217901 19.8423
23.025 26.217901 19.864201
22.875 26.217901 19.878799
22.725 26.217901 19.8934
22.575001 26.217901 19.8934
22.424999 26.217901 19.8934
22.275 26.217901 19.878799
22.125 26.217901 19.8423
21.975 26.217901 19.834999
21.825001 26.217901 19.7985
21.674999 26.217901 19.7474
21.525 26.217901 19.7474
21.375 26.217901 19.7474
21.225 26.217901 19.7547
21.075001 26.217901 19.761999
20.924999 26.217901 19.7255
20.775 26.217901 19.710899
20.625 26.217901 19.718201
20.475 26.217901 19.7255
20.325001 26.217901 19.783899
20.174999 26.217901 19.791201
20.025 26.217901 19.688999
19.875 26.217901 19.667101
19.725 26.217901 19.688999
19.575001 26.217901 19.7255
19.424999 26.217901 19.7255
19.275 26.217901 19.7328
19.125 26.217901 19.7547
18.975 26.217901 19.7766
18.825001 26.217901 19.740101
18.674999 26.217901 19.7036
18.525 26.217901 19.6817
18.375 26.217901 19.6817
18.225 26.217901 19.6744
18.075001 26.217901 19.667101
17.924999 26.217901 19.696301
17.775 26.217901 19.718201
17.625 26.217901 19.696301
17.475 26.217901 19.637899
17.325001 26.217901 19.637899
17.174999 26.217901 19.645201
17.025 26.217901 19.637899
16.875 26.217901 19.5795
16.725 26.217901 19.623301
16.575001 26.217901 19.667101
16.424999 26.217901 19.7036
16.275 26.217901 19.667101
16.125 26.217901 19.623301
15.975 26.217901 19.6014
67.574997 27.154242 19.396999
67.425003 27.154242 19.4335
67.275002 27.154242 19.4554
67.125 27.154242 19.448099
66.974998 27.154242 19.4554
66.824997 27.154242 19.4335
66.675003 27.154242 19.4408
66.525002 27.154242 19.550301
66.375 27.154242 19.564899
66.224998 27.154242 19.5357
66.074997 27.154242 19.499201
65.925003 27.154242 19.5138
65.775002 27.154242 19.5138
65.625 27.154242 19.4846
65.474998 27.154242 19.4335
65.324997 27.154242 19.499201
65.175003 27.154242 19.550301
65.025002 27.154242 19.542999
64.875 27.154242 19.542999
64.724998 27.154242 19.572201
64.574997 27.154242 19.623301
64.425003 27.154242 19.5868
64.275002 27.154242 19.594101
64.125 27.154242 19.615999
63.974998 27.154242 19.615999
63.825001 27.154242 19.615999
63.674999 27.154242 19.6014
63.525002 27.154242 19.5795
63.375 27.154242 19.6014
63.224998 27.154242 19.6525
63.075001 27.154242 19.6744
62.924999 27.154242 19.594101
62.775002 27.154242 19.6306
62.625 27.154242 19.6817
62.474998 27.154242 19.740101
62.325001 27.154242 19.7328
62.174999 27.154242 19.740101
62.025002 27.154242 19.7547
61.875 27.154242 19.710899
61.724998 27.154242 19.718201
61.575001 27.154242 19.740101
61.424999 27.154242 19.7693
61.275002 27.154242 19.740101
61.125 27.154242 19.7328
60.974998 27.154242 19.7474
60.825001 27.154242 19.783899
60.674999 27.154242 19.761999
60.525002 27.154242 19.7474
60.375 27.154242 19.7328
60.224998 27.154242 19.7693
60.075001 27.154242 19.7766
59.924999 27.154242 19.7766
59.775002 27.154242 19.834999
59.625 27.154242 19.813101
59.474998 27.154242 19.805799
59.325001 27.154242 19.8423
59.174999 27.154242 19.8496
59.025002 27.154242 19.8423
58.875 27.154242 19.8204
58.724998 27.154242 19.813101
58.575001 27.154242 19.791201
58.424999 27.154242 19.805799
58.275002 27.154242 19.8715
58.125 27.154242 19.8715
57.974998 27.154242 19.864201
57.825001 27.154242 19.878799
57.674999 27.154242 19.878799
57.525002 27.154242 19.886101
57.375 27.154242 19.878799
57.224998 27.154242 19.8496
57.075001 27.154242 19.8715
56.924999 27.154242 19.856899
56.775002 27.154242 19.864201
56.625 27.154242 19.951799
56.474998 27.154242 19.951799
56.325001 27.154242 19.951799
56.174999 27.154242 20.0175
56.025002 27.154242 19.9883
55.875 27.154242 19.9445
55.724998 27.154242 19.886101
55.575001 27.154242 19.740101
53.924999 27.154242 19.9153
53.775002 27.154242 19.9153
53.625 27.154242 19.929899
53.474998 27.154242 20.0394
53.325001 27.154242 20.0613
53.174999 27.154242 20.0467
53.025002 27.154242 19.9956
52.875 27.154242 20.010201
52.724998 27.154242 19.9883
52.575001 27.154242 19.959101
52.424999 27.154242 19.9737
52.275002 27.154242 19.9883
52.125 27.154242 20.002899
51.974998 27.154242 20.010201
51.825001 27.154242 19.9883
51.674999 27.154242 19.981001
51.525002 27.154242 19.981001
51.375 27.154242 19.9664
51.224998 27.154242 19.959101
51.075001 27.154242 19.9664
50.924999 27.154242 20.010201
50.775002 27.154242 19.9883
50.625 27.154242 19.981001
50.474998 27.154242 19.981001
50.325001 27.154242 20.032101
50.174999 27.154242 20.032101
50.025002 27.154242 20.010201
49.875 27.154242 20.010201
49.724998 27.154242 20.010201
49.575001 27.154242 20.002899
49.424999 27.154242 19.9737
49.275002 27.154242 19.9737
49.125 27.154242 19.9664
48.974998 27.154242 19.959101
48.825001 27.154242 19.9883
48.674999 27.154242 19.9883
48.525002 27.154242 20.002899
48.375 27.154242 20.0175
48.224998 27.154242 20.0175
48.075001 27.154242 20.024799
47.924999 27.154242 20.032101
47.775002 27.154242 20.002899
47.625 27.154242 19.9737
47.474998 27.154242 19.959101
47.325001 27.154242 19.951799
47.174999 27.154242 19.9956
47.025002 27.154242 20.002899
46.875 27.154242 20.002899
46.724998 27.154242 20.0394
46.575001 27.154242 20.075899
46.424999 27.154242 20.075899
46.275002 27.154242 20.0394
46.125 27.154242 20.024799
45.974998 27.154242 20.024799
45.825001 27.154242 20.0467
45.674999 27.154242 20.075899
45.525002 27.154242 20.054001
45.375 27.154242 20.0394
45.224998 27.154242 20.0613
45.075001 27.154242 20.1124
44.924999 27.154242 20.105101
44.775002 27.154242 20.075899
44.625 27.154242 20.0613
44.474998 27.154242 20.054001
44.325001 27.154242 20.0686
44.174999 27.154242 20.1124
44.025002 27.154242 20.1124
43.875 27.154242 20.119699
43.724998 27.154242 20.105101
43.575001 27.154242 20.032101
43.424999 27.154242 20.032101
43.275002 27.154242 20.032101
43.125 27.154242 20.0467
42.974998 27.154242 20.0613
42.825001 27.154242 20.002899
42.674999 27.154242 19.9956
42.525002 27.154242 20.105101
42.375 27.154242 20.105101
42.224998 27.154242 20.0905
42.075001 27.154242 20.0686
41.924999 27.154242 20.0613
41.775002 27.154242 20.054001
41.625 27.154242 20.0613
41.474998 27.154242 20.0613
41.325001 27.154242 20.002899
41.174999 27.154242 19.9956
41.025002 27.154242 20.032101
40.875 27.154242 20.032101
40.724998 27.154242 20.010201
40.575001 27.154242 19.981001
40.424999 27.154242 19.9956
40.275002 27.154242 20.010201
40.125 27.154242 20.032101
39.974998 27.154242 20.054001
39.825001 27.154242 20.0613
39.674999 27.154242 20.0832
39.525002 27.154242 20.097799
39.375 27.154242 20.075899
39.224998 27.154242 20.075899
39.075001 27.154242 20.075899
38.924999 27.154242 20.0613
38.775002 27.154242 20.0613
38.625 27.154242 20.0467
38.474998 27.154242 20.0394
38.325001 27.154242 20.032101
38.174999 27.154242 19.9956
38.025002 27.154242 19.9956
37.875 27.154242 20.024799
37.724998 27.154242 20.0613
37.575001 27.154242 20.075899
37.424999 27.154242 20.075899
37.275002 27.154242 20.010201
37.125 27.154242 19.9883
36.974998 27.154242 20.002899
36.825001 27.154242 20.0394
36.674999 27.154242 20.075899
36.525002 27.154242 20.0175
36.375 27.154242 19.9664
36.224998 27.154242 20.010201
36.075001 27.154242 20.032101
35.924999 27.154242 20.0394
35.775002 27.154242 20.032101
35.625 27.154242 19.9956
35.474998 27.154242 19.9956
35.325001 27.154242 20.0175
35.174999 27.154242 20.0175
35.025002 27.154242 19.9956
34.875 27.154242 19.9737
34.724998 27.154242 19.959101
34.575001 27.154242 19.9956
34.424999 27.154242 20.0175
34.275002 27.154242 20.032101
34.125 27.154242 20.0175
33.974998 27.154242 20.0394
33.825001 27.154242 20.024799
33.674999 27.154242 19.9737
33.525002 27.154242 19.9737
33.375 27.154242 19.9956
33.224998 27.154242 20.0175
33.075001 27.154242 19.9956
32.924999 27.154242 19.9883
32.775002 27.154242 20.002899
32.625 27.154242 20.0394
32.474998 27.154242 20.097799
32.325001 27.154242 20.0905
32.174999 27.154242 20.054001
32.025002 27.154242 20.0175
31.875 27.154242 19.9737
31.725 27.154242 19.951799
31.575001 27.154242 19.937201
31.424999 27.154242 19.9737
31.275 27.154242 20.024799
31.125 27.154242 20.0686
30.975 27.154242 20.0613
30.825001 27.154242 20.0613
30.674999 27.154242 20.054001
30.525 27.154242 20.024799
30.375 27.154242 19.9883
30.225 27.154242 19.959101
30.075001 27.154242 19.937201
29.924999 27.154242 19.959101
29.775 27.154242 19.9737
29.625 27.154242 19.9883
29.475 27.154242 20.010201
29.325001 27.154242 19.981001
29.174999 27.154242 19.959101
29.025 27.154242 19.9445
28.875 27.154242 19.9226
28.725 27.154242 19.9153
28.575001 27.154242 19.937201
28.424999 27.154242 19.981001
28.275 27.154242 19.908001
28.125 27.154242 19.615999
26.924999 27.154242 19.8934
26.775 27.154242 19.908001
26.625 27.154242 19.9445
26.475 27.154242 19.9664
26.325001 27.154242 19.937201
26.174999 27.154242 19.9445
26.025 27.154242 19.9664
25.875 27.154242 19.9883
25.725 27.154242 19.9883
25.575001 27.154242 19.9664
25.424999 27.154242 19.937201
25.275 27.154242 19.951799
25.125 27.154242 19.9226
24.975 27.154242 19.9007
24.825001 27.154242 19.9007
24.674999 27.154242 19.9007
24.525 27.154242 19.878799
24.375 27.154242 19.8715
24.225 27.154242 19.8934
24.075001 27.154242 19.886101
23.924999 27.154242 19.8715
23.775 27.154242 19.8715
23.625 27.154242 19.856899
23.475 27.154242 19.834999
23.325001 27.154242 19.834999
23.174999 27.154242 19.878799
23.025 27.154242 19.9007
22.875 27.154242 19.9007
22.725 27.154242 19.886101
22.575001 27.154242 19.864201
22.424999 27.154242 19.813101
22.275 27.154242 19.7693
22.125 27.154242 19.7474
21.975 27.154242 19.761999
21.825001 27.154242 19.7693
21.674999 27.154242 19.7547
21.525 27.154242 19.791201
21.375 27.154242 19.7474
21.225 27.154242 19.710899
21.075001 27.154242 19.7255
20.924999 27.154242 19.7255
20.775 27.154242 19.7547
20.625 27.154242 19.7985
20.475 27.154242 19.7985
20.325001 27.154242 19.7985
20.174999 27.154242 19.7985
20.025 27.154242 19.7985
19.875 27.154242 19.7474
19.725 27.154242 19.7328
19.575001 27.154242 19.7474
19.424999 27.154242 19.7693
19.275 27.154242 19.7547
19.125 27.154242 19.710899
18.975 27.154242 19.6525
18.825001 27.154242 19.645201
18.674999 27.154242 19.6306
18.525 27.154242 19.623301
18.375 27.154242 19.667101
18.225 27.154242 19.6598
18.075001 27.154242 19.637899
17.924999 27.154242 19.623301
17.775 27.154242 19.6744
17.625 27.154242 19.6744
17.475 27.154242 19.645201
17.325001 27.154242 19.645201
17.174999 27.154242 19.645201
17.025 27.154242 19.637899
16.875 27.154242 19.6598
16.725 27.154242 19.645201
16.575001 27.154242 19.615999
16.424999 27.154242 19.5868
16.275 27.154242 19.5795
16.125 27.154242 19.5795
15.975 27.154242 19.572201
67.574997 28.090584 19.3678
67.425003 28.090584 19.3678
67.275002 28.090584 19.396999
67.125 28.090584 19.4554
66.974998 28.090584 19.4408
66.824997 28.090584 19.4627
66.675003 28.090584 19.5065
66.525002 28.090584 19.5065
66.375 28.090584 19.499201
66.224998 28.090584 19.491899
66.074997 28.090584 19.4846
65.925003 28.090584 19.521099
65.775002 28.090584 19.521099
65.625 28.090584 19.491899
65.474998 28.090584 19.5065
65.324997 28.090584 19.5065
65.175003 28.090584 19.5065
65.025002 28.090584 19.5357
64.875 28.090584 19.5138
64.724998 28.090584 19.5357
64.574997 28.090584 19.572201
64.425003 28.090584 19.572201
64.275002 28.090584 19.5868
64.125 28.090584 19.6087
63.974998 28.090584 19.5868
63.825001 28.090584 19.637899
63.674999 28.090584 19.6598
63.525002 28.090584 19.667101
63.375 28.090584 19.6014
63.224998 28.090584 19.594101
63.075001 28.090584 19.6087
62.924999 28.090584 19.637899
62.775002 28.090584 19.623301
62.625 28.090584 19.6525
62.474998 28.090584 19.718201
62.325001 28.090584 19.710899
62.174999 28.090584 19.710899
62.025002 28.090584 19.7255
61.875 28.090584 19.7255
61.724998 28.090584 19.710899
61.575001 28.090584 19.710899
61.424999 28.090584 19.7328
61.275002 28.090584 19.7547
61.125 28.090584 19.7328
60.974998 28.090584 19.710899
60.825001 28.090584 19.761999
60.674999 28.090584 19.7547
60.525002 28.090584 19.7474
60.375 28.090584 19.7474
60.224998 28.090584 19.7474
60.075001 28.090584 19.740101
59.924999 28.090584 19.7547
59.775002 28.090584 19.783899
59.625 28.090584 19.7985
59.474998 28.090584 19.8204
59.325001 28.090584 19.8496
59.174999 28.090584 19.8277
59.025002 28.090584 19.8204
58.875 28.090584 19.834999
58.724998 28.090584 19.813101
58.575001 28.090584 19.805799
58.424999 28.090584 19.805799
58.275002 28.090584 19.8204
58.125 28.090584 19.8496
57.974998 28.090584 19.878799
57.825001 28.090584 19.908001
57.674999 28.090584 19.8934
57.525002 28.090584 19.834999
57.375 28.090584 19.805799
57.224998 28.090584 19.8277
57.075001 28.090584 19.8496
56.924999 28.090584 19.8715
56.775002 28.090584 19.9007
56.625 28.090584 19.9007
56.474998 28.090584 19.8715
56.325001 28.090584 19.8715
56.174999 28.090584 19.9007
56.025002 28.090584 19.9226
55.875 28.090584 19.9737
55.724998 28.090584 20.010201
55.575001 28.090584 19.9664
55.424999 28.090584 19.8423
53.625 28.090584 19.864201
53.474998 28.090584 19.959101
53.325001 28.090584 20.0175
53.174999 28.090584 20.054001
53.025002 28.090584 20.0467
52.875 28.090584 20.002899
52.724998 28.090584 19.9956
52.575001 28.090584 20.010201
52.424999 28.090584 19.981001
52.275002 28.090584 19.9737
52.125 28.090584 19.9664
51.974998 28.090584 19.9445
51.825001 28.090584 19.929899
51.674999 28.090584 19.9226
51.525002 28.090584 19.9445
51.375 28.090584 20.032101
51.224998 28.090584 20.010201
51.075001 28.090584 19.981001
50.924999 28.090584 20.002899
50.775002 28.090584 19.9956
50.625 28.090584 19.981001
50.474998 28.090584 19.9664
50.325001 28.090584 19.959101
50.174999 28.090584 19.9445
50.025002 28.090584 19.9737
49.875 28.090584 20.0467
49.724998 28.090584 20.024799
49.575001 28.090584 20.002899
49.424999 28.090584 19.9883
49.275002 28.090584 20.024799
49.125 28.090584 19.981001
48.974998 28.090584 19.951799
48.825001 28.090584 19.9737
48.674999 28.090584 19.959101
48.525002 28.090584 19.929899
48.375 28.090584 19.9226
48.224998 28.090584 20.010201
48.075001 28.090584 20.032101
47.924999 28.090584 20.0394
47.775002 28.090584 20.0175
47.625 28.090584 19.9956
47.474998 28.090584 19.9883
47.325001 28.090584 19.9737
47.174999 28.090584 19.9883
47.025002 28.090584 19.929899
46.875 28.090584 19.9007
46.724998 28.090584 19.9445
46.575001 28.090584 19.9445
46.424999 28.090584 19.951799
46.275002 28.090584 19.981001
46.125 28.090584 20.0467
45.974998 28.090584 20.105101
45.825001 28.090584 20.1416
45.674999 28.090584 20.1562
45.525002 28.090584 20.1416
45.375 28.090584 20.127001
45.224998 28.090584 20.1416
45.075001 28.090584 20.127001
44.924999 28.090584 20.0832
44.775002 28.090584 20.0467
44.625 28.090584 20.0613
44.474998 28.090584 20.0686
44.325001 28.090584 20.075899
44.174999 28.090584 20.0832
44.025002 28.090584 20.0467
43.875 28.090584 20.0394
43.724998 28.090584 20.0394
43.575001 28.090584 20.010201
43.424999 28.090584 20.0832
43.275002 28.090584 20.0832
43.125 28.090584 20.0175
42.974998 28.090584 20.0175
42.825001 28.090584 20.024799
42.674999 28.090584 20.0175
42.525002 28.090584 20.032101
42.375 28.090584 20.0613
42.224998 28.090584 20.0832
42.075001 28.090584 20.0686
41.924999 28.090584 20.032101
41.775002 28.090584 20.054001
41.625 28.090584 20.0613
41.474998 28.090584 19.9956
41.325001 28.090584 20.024799
41.174999 28.090584 20.0467
41.025002 28.090584 20.0613
40.875 28.090584 20.024799
40.724998 28.090584 20.002899
40.575001 28.090584 19.9956
40.424999 28.090584 19.981001
40.275002 28.090584 20.002899
40.125 28.090584 20.002899
39.974998 28.090584 19.9664
39.825001 28.090584 19.9956
39.674999 28.090584 20.032101
39.525002 28.090584 20.054001
39.375 28.090584 20.0613
39.224998 28.090584 20.075899
39.075001 28.090584 20.0686
38.924999 28.090584 20.032101
38.775002 28.090584 19.9737
38.625 28.090584 20.002899
38.474998 28.090584 20.0394
38.325001 28.090584 20.024799
38.174999 28.090584 19.9883
38.025002 28.090584 19.9737
37.875 28.090584 19.9664
37.724998 28.090584 19.937201
37.575001 28.090584 19.9956
37.424999 28.090584 20.0467
37.275002 28.090584 19.9664
37.125 28.090584 19.929899
36.974998 28.090584 19.9153
36.825001 28.090584 19.929899
36.674999 28.090584 19.9956
36.525002 28.090584 20.0394
36.375 28.090584 20.0613
36.224998 28.090584 20.0613
36.075001 28.090584 20.0613
35.924999 28.090584 20.054001
35.775002 28.090584 20.0175
35.625 28.090584 20.032101
35.474998 28.090584 19.9956
35.325001 28.090584 19.951799
35.174999 28.090584 19.9664
35.025002 28.090584 20.032101
34.875 28.090584 20.054001
34.724998 28.090584 20.032101
34.575001 28.090584 20.0394
34.424999 28.090584 20.0175
34.275002 28.090584 19.981001
34.125 28.090584 19.9664
33.974998 28.090584 19.981001
33.825001 28.090584 19.9883
33.674999 28.090584 19.981001
33.525002 28.090584 20.032101
33.375 28.090584 19.9956
33.224998 28.090584 19.9445
33.075001 28.090584 19.937201
32.924999 28.090584 19.981001
32.775002 28.090584 19.9956
32.625 28.090584 19.981001
32.474998 28.090584 19.959101
32.325001 28.090584 19.929899
32.174999 28.090584 19.9153
32.025002 28.090584 19.929899
31.875 28.090584 19.959101
31.725 28.090584 19.9883
31.575001 28.090584 20.0175
31.424999 28.090584 19.9737
31.275 28.090584 19.9737
31.125 28.090584 19.9883
30.975 28.090584 19.9737
30.825001 28.090584 19.8934
30.674999 28.090584 19.886101
30.525 28.090584 19.9226
30.375 28.090584 19.9664
30.225 28.090584 19.9956
30.075001 28.090584 20.010201
29.924999 28.090584 20.024799
29.775 28.090584 20.010201
29.625 28.090584 20.002899
29.475 28.090584 20.032101
29.325001 28.090584 20.0175
29.174999 28.090584 19.9883
29.025 28.090584 19.9664
28.875 28.090584 19.9664
28.725 28.090584 19.951799
28.575001 28.090584 19.929899
28.424999 28.090584 19.9445
28.275 28.090584 19.9445
28.125 28.090584 19.959101
27.975 28.090584 19.9153
27.825001 28.090584 19.623301
26.475 28.090584 19.878799
26.325001 28.090584 19.9007
26.174999 28.090584 19.9007
26.025 28.090584 19.8934
25.875 28.090584 19.9007
25.725 28.090584 19.9007
25.575001 28.090584 19.9007
25.424999 28.090584 19.886101
25.275 28.090584 19.886101
25.125 28.090584 19.8496
24.975 28.090584 19.8496
24.825001 28.090584 19.8715
24.674999 28.090584 19.9007
24.525 28.090584 19.8934
24.375 28.090584 19.864201
24.225 28.090584 19.8715
24.075001 28.090584 19.8715
23.924999 28.090584 19.864201
23.775 28.090584 19.8715
23.625 28.090584 19.856899
23.475 28.090584 19.834999
23.325001 28.090584 19.8204
23.174999 28.090584 19.8204
23.025 28.090584 19.834999
22.875 28.090584 19.805799
22.725 28.090584 19.7547
22.575001 28.090584 19.7328
22.424999 28.090584 19.7985
22.275 28.090584 19.834999
22.125 28.090584 19.7474
21.975 28.090584 19.834999
21.825001 28.090584 19.856899
21.674999 28.090584 19.8277
21.525 28.090584 19.813101
21.375 28.090584 19.8204
21.225 28.090584 19.8204
21.075001 28.090584 19.7474
20.924999 28.090584 19.7328
20.775 28.090584 19.7036
20.625 28.090584 19.6817
20.475 28.090584 19.761999
20.325001 28.090584 19.791201
20.174999 28.090584 19.791201
20.025 28.090584 19.718201
19.875 28.090584 19.740101
19.725 28.090584 19.7547
19.575001 28.090584 19.7474
19.424999 28.090584 19.7547
19.275 28.090584 19.7474
19.125 28.090584 19.7328
18.975 28.090584 19.740101
18.825001 28.090584 19.710899
18.674999 28.090584 19.696301
18.525 28.090584 19.688999
18.375 28.090584 19.6744
18.225 28.090584 19.6525
18.075001 28.090584 19.645201
17.924999 28.090584 19.6817
17.775 28.090584 19.6817
17.625 28.090584 19.6525
17.475 28.090584 19.6306
17.325001 28.090584 19.667101
17.174999 28.090584 19.667101
17.025 28.090584 19.6598
16.875 28.090584 19.667101
16.725 28.090584 19.645201
16.575001 28.090584 19.6087
16.424999 28.090584 19.5795
16.275 28.090584 19.696301
16.125 28.090584 19.7036
15.975 28.090584 19.667101
67.574997 29.026924 19.382401
67.425003 29.026924 19.426201
67.275002 29.026924 19.4554
67.125 29.026924 19.448099
66.974998 29.026924 19.4627
66.824997 29.026924 19.491899
66.675003 29.026924 19.521099
66.525002 29.026924 19.477301
66.375 29.026924 19.477301
66.224998 29.026924 19.491899
66.074997 29.026924 19.5065
65.925003 29.026924 19.5065
65.775002 29.026924 19.542999
65.625 29.026924 19.572201
65.474998 29.026924 19.5357
65.324997 29.026924 19.550301
65.175003 29.026924 19.564899
65.025002 29.026924 19.5795
64.875 29.026924 19.572201
64.724998 29.026924 19.5576
64.574997 29.026924 19.5357
64.425003 29.026924 19.564899
64.275002 29.026924 19.5868
64.125 29.026924 19.6087
63.974998 29.026924 19.623301
63.825001 29.026924 19.623301
63.674999 29.026924 19.615999
63.525002 29.026924 19.6306
63.375 29.026924 19.623301
63.224998 29.026924 19.6087
63.075001 29.026924 19.623301
62.924999 29.026924 19.6817
62.775002 29.026924 19.6744
62.625 29.026924 19.6817
62.474998 29.026924 19.710899
62.325001 29.026924 19.710899
62.174999 29.026924 19.7328
62.025002 29.026924 19.7474
61.875 29.026924 19.7255
61.724998 29.026924 19.710899
61.575001 29.026924 19.710899
61.424999 29.026924 19.7255
61.275002 29.026924 19.7474
61.125 29.026924 19.783899
60.974998 29.026924 19.8204
60.825001 29.026924 19.761999
60.674999 29.026924 19.740101
60.525002 29.026924 19.7255
60.375 29.026924 19.7255
60.224998 29.026924 19.7255
60.075001 29.026924 19.7474
59.924999 29.026924 19.7693
59.775002 29.026924 19.761999
59.625 29.026924 19.740101
59.474998 29.026924 19.740101
59.325001 29.026924 19.761999
59.174999 29.026924 19.791201
59.025002 29.026924 19.8277
58.875 29.026924 19.8496
58.724998 29.026924 19.791201
58.575001 29.026924 19.791201
58.424999 29.026924 19.805799
58.275002 29.026924 19.8204
58.125 29.026924 19.8277
57.974998 29.026924 19.834999
57.825001 29.026924 19.8423
57.674999 29.026924 19.834999
57.525002 29.026924 19.7985
57.375 29.026924 19.8277
57.224998 29.026924 19.908001
57.075001 29.026924 19.886101
56.924999 29.026924 19.8496
56.775002 29.026924 19.8277
56.625 29.026924 19.834999
56.474998 29.026924 19.783899
56.325001 29.026924 19.791201
56.174999 29.026924 19.8496
56.025002 29.026924 19.8496
55.875 29.026924 19.856899
55.724998 29.026924 19.864201
55.575001 29.026924 19.886101
55.424999 29.026924 19.8934
55.275002 29.026924 19.9226
55.125 29.026924 19.959101
53.325001 29.026924 19.959101
53.174999 29.026924 20.024799
53.025002 29.026924 20.0832
52.875 29.026924 20.032101
52.724998 29.026924 20.0175
52.575001 29.026924 20.0394
52.424999 29.026924 20.032101
52.275002 29.026924 20.0394
52.125 29.026924 20.054001
51.974998 29.026924 20.032101
51.825001 29.026924 20.0175
51.674999 29.026924 20.002899
51.525002 29.026924 19.9883
51.375 29.026924 19.9737
51.224998 29.026924 19.9956
51.075001 29.026924 19.9883
50.924999 29.026924 19.929899
50.775002 29.026924 20.002899
50.625 29.026924 20.032101
50.474998 29.026924 20.024799
50.325001 29.026924 19.9956
50.174999 29.026924 19.981001
50.025002 29.026924 19.981001
49.875 29.026924 20.0175
49.724998 29.026924 19.9956
49.575001 29.026924 19.9883
49.424999 29.026924 19.9883
49.275002 29.026924 19.9883
49.125 29.026924 19.9956
48.974998 29.026924 19.9956
48.825001 29.026924 20.002899
48.674999 29.026924 20.0175
48.525002 29.026924 20.0175
48.375 29.026924 19.981001
48.224998 29.026924 19.9007
48.075001 29.026924 19.937201
47.924999 29.026924 19.9883
47.775002 29.026924 20.032101
47.625 29.026924 20.024799
47.474998 29.026924 20.0175
47.325001 29.026924 20.010201
47.174999 29.026924 20.002899
47.025002 29.026924 19.9883
46.875 29.026924 19.9737
46.724998 29.026924 19.9956
46.575001 29.026924 20.002899
46.424999 29.026924 20.010201
46.275002 29.026924 20.010201
46.125 29.026924 20.010201
45.974998 29.026924 20.054001
45.825001 29.026924 20.0905
45.674999 29.026924 20.0905
45.525002 29.026924 20.105101
45.375 29.026924 20.0905
45.224998 29.026924 20.0394
45.075001 29.026924 20.0394
44.924999 29.026924 20.0175
44.775002 29.026924 20.002899
44.625 29.026924 20.024799
44.474998 29.026924 20.075899
44.325001 29.026924 20.097799
44.174999 29.026924 20.0832
44.025002 29.026924 20.127001
43.875 29.026924 20.097799
43.724998 29.026924 20.075899
43.575001 29.026924 20.148899
43.424999 29.026924 20.1343
43.275002 29.026924 20.105101
43.125 29.026924 20.0613
42.974998 29.026924 19.9956
42.825001 29.026924 19.9737
42.674999 29.026924 19.981001
42.525002 29.026924 20.002899
42.375 29.026924 20.002899
42.224998 29.026924 20.010201
42.075001 29.026924 20.010201
41.924999 29.026924 19.951799
41.775002 29.026924 19.981001
41.625 29.026924 20.032101
41.474998 29.026924 20.0686
41.325001 29.026924 20.054001
41.174999 29.026924 20.0467
41.025002 29.026924 20.054001
40.875 29.026924 19.9956
40.724998 29.026924 20.010201
40.575001 29.026924 20.0394
40.424999 29.026924 20.0394
40.275002 29.026924 20.0394
40.125 29.026924 20.0467
39.974998 29.026924 20.0832
39.825001 29.026924 20.0832
39.674999 29.026924 20.075899
39.525002 29.026924 20.054001
39.375 29.026924 19.9883
39.224998 29.026924 19.9883
39.075001 29.026924 20.010201
38.924999 29.026924 20.0467
38.775002 29.026924 20.0613
38.625 29.026924 20.0686
38.474998 29.026924 20.054001
38.325001 29.026924 20.032101
38.174999 29.026924 20.010201
38.025002 29.026924 19.9883
37.875 29.026924 19.9664
37.724998 29.026924 19.9883
37.575001 29.026924 19.9956
37.424999 29.026924 20.002899
37.275002 29.026924 20.0394
37.125 29.026924 20.032101
36.974998 29.026924 19.9883
36.825001 29.026924 19.9445
36.674999 29.026924 19.937201
36.525002 29.026924 19.9226
36.375 29.026924 19.929899
36.224998 29.026924 19.9737
36.075001 29.026924 20.032101
35.924999 29.026924 20.075899
35.775002 29.026924 20.0905
35.625 29.026924 20.054001
35.474998 29.026924 20.054001
35.325001 29.026924 20.075899
35.174999 29.026924 20.0613
35.025002 29.026924 19.9956
34.875 29.026924 19.9956
34.724998 29.026924 20.0467
34.575001 29.026924 19.9737
34.424999 29.026924 19.9956
34.275002 29.026924 20.024799
34.125 29.026924 19.959101
33.974998 29.026924 20.002899
33.825001 29.026924 20.0175
33.674999 29.026924 19.9883
33.525002 29.026924 19.9737
33.375 29.026924 19.9445
33.224998 29.026924 19.9226
33.075001 29.026924 19.9445
32.924999 29.026924 19.9664
32.775002 29.026924 19.9664
32.625 29.026924 19.937201
32.474998 29.026924 19.981001
32.325001 29.026924 19.9956
32.174999 29.026924 19.9956
32.025002 29.026924 19.959101
31.875 29.026924 19.959101
31.725 29.026924 19.9664
31.575001 29.026924 19.959101
31.424999 29.026924 19.959101
31.275 29.026924 19.959101
31.125 29.026924 19.9664
30.975 29.026924 19.9664
30.825001 29.026924 19.9737
30.674999 29.026924 19.981001
30.525 29.026924 19.951799
30.375 29.026924 20.002899
30.225 29.026924 20.024799
30.075001 29.026924 20.024799
29.924999 29.026924 20.002899
29.775 29.026924 19.9956
29.625 29.026924 19.9883
29.475 29.026924 19.9737
29.325001 29.026924 19.951799
29.174999 29.026924 19.929899
29.025 29.026924 19.9153
28.875 29.026924 19.9226
28.725 29.026924 19.929899
28.575001 29.026924 19.937201
28.424999 29.026924 19.951799
28.275 29.026924 19.951799
28.125 29.026924 19.9445
27.975 29.026924 19.9226
27.825001 29.026924 19.951799
27.674999 29.026924 19.834999
26.325001 29.026924 19.8715
26.174999 29.026924 19.8715
26.025 29.026924 19.8934
25.875 29.026924 19.937201
25.725 29.026924 19.908001
25.575001 29.026924 19.9445
25.424999 29.026924 19.9664
25.275 29.026924 19.908001
25.125 29.026924 19.8934
24.975 29.026924 19.886101
24.825001 29.026924 19.886101
24.674999 29.026924 19.886101
24.525 29.026924 19.878799
24.375 29.026924 19.8715
24.225 29.026924 19.8715
24.075001 29.026924 19.864201
23.924999 29.026924 19.8715
23.775 29.026924 19.864201
23.625 29.026924 19.834999
23.475 29.026924 19.8277
23.325001 29.026924 19.8277
23.174999 29.026924 19.805799
23.025 29.026924 19.805799
22.875 29.026924 19.834999
22.725 29.026924 19.886101
22.575001 29.026924 19.864201
22.424999 29.026924 19.856899
22.275 29.026924 19.8423
22.125 29.026924 19.7693
21.975 29.026924 19.864201
21.825001 29.026924 19.864201
21.674999 29.026924 19.805799
21.525 29.026924 19.8715
21.375 29.026924 19.813101
21.225 29.026924 19.740101
21.075001 29.026924 19.761999
20.924999 29.026924 19.791201
20.775 29.026924 19.7985
20.625 29.026924 19.7693
20.475 29.026924 19.7766
20.325001 29.026924 19.7328
20.174999 29.026924 19.7036
20.025 29.026924 19.7547
19.875 29.026924 19.7547
19.725 29.026924 19.7328
19.575001 29.026924 19.7036
19.424999 29.026924 19.710899
19.275 29.026924 19.688999
19.125 29.026924 19.667101
18.975 29.026924 19.645201
18.825001 29.026924 19.688999
18.674999 29.026924 19.710899
18.525 29.026924 19.7255
18.375 29.026924 19.710899
18.225 29.026924 19.688999
18.075001 29.026924 19.6598
17.924999 29.026924 19.615999
17.775 29.026924 19.6087
17.625 29.026924 19.6525
17.475 29.026924 19.718201
17.325001 29.026924 19.688999
17.174999 29.026924 19.6817
17.025 29.026924 19.6744
16.875 29.026924 19.6306
16.725 29.026924 19.6817
16.575001 29.026924 19.696301
16.424999 29.026924 19.667101
16.275 29.026924 19.667101
16.125 29.026924 19.6598
15.975 29.026924 19.6525
67.425003 29.963264 19.4335
67.275002 29.963264 19.426201
67.125 29.963264 19.3897
66.974998 29.963264 19.404301
66.824997 29.963264 19.4335
66.675003 29.963264 19.469999
66.525002 29.963264 19.491899
66.375 29.963264 19.4846
66.224998 29.963264 19.469999
66.074997 29.963264 19.4627
65.925003 29.963264 19.5284
65.775002 29.963264 19.5576
65.625 29.963264 19.542999
65.474998 29.963264 19.542999
65.324997 29.963264 19.5138
65.175003 29.963264 19.5138
65.025002 29.963264 19.572201
64.875 29.963264 19.564899
64.724998 29.963264 19.564899
64.574997 29.963264 19.5795
64.425003 29.963264 19.572201
64.275002 29.963264 19.564899
64.125 29.963264 19.564899
63.974998 29.963264 19.5795
63.825001 29.963264 19.5576
63.674999 29.963264 19.5868
63.525002 29.963264 19.645201
63.375 29.963264 19.637899
63.224998 29.963264 19.615999
63.075001 29.963264 19.6087
62.924999 29.963264 19.6306
62.775002 29.963264 19.6598
62.625 29.963264 19.645201
62.474998 29.963264 19.594101
62.325001 29.963264 19.623301
62.174999 29.963264 19.696301
62.025002 29.963264 19.7474
61.875 29.963264 19.718201
61.724998 29.963264 19.688999
61.575001 29.963264 19.696301
61.424999 29.963264 19.7328
61.275002 29.963264 19.718201
61.125 29.963264 19.7328
60.974998 29.963264 19.761999
60.825001 29.963264 19.7547
60.674999 29.963264 19.7693
60.525002 29.963264 19.7766
60.375 29.963264 19.7547
60.224998 29.963264 19.7766
60.075001 29.963264 19.791201
59.924999 29.963264 19.791201
59.775002 29.963264 19.813101
59.625 29.963264 19.7693
59.474998 29.963264 19.761999
59.325001 29.963264 19.805799
59.174999 29.963264 19.7766
59.025002 29.963264 19.7693
58.875 29.963264 19.7693
58.724998 29.963264 19.791201
58.575001 29.963264 19.805799
58.424999 29.963264 19.8204
58.275002 29.963264 19.834999
58.125 29.963264 19.783899
57.974998 29.963264 19.805799
57.825001 29.963264 19.8496
57.674999 29.963264 19.834999
57.525002 29.963264 19.8277
57.375 29.963264 19.8423
57.224998 29.963264 19.864201
57.075001 29.963264 19.8423
56.924999 29.963264 19.8423
56.775002 29.963264 19.8715
56.625 29.963264 19.937201
56.474998 29.963264 19.929899
56.325001 29.963264 19.886101
56.174999 29.963264 19.834999
56.025002 29.963264 19.856899
55.875 29.963264 19.8934
55.724998 29.963264 19.9226
55.575001 29.963264 19.886101
55.424999 29.963264 19.9007
55.275002 29.963264 19.929899
55.125 29.963264 19.951799
54.974998 29.963264 19.951799
54.825001 29.963264 19.864201
53.174999 29.963264 19.9226
53.025002 29.963264 19.9445
52.875 29.963264 19.9445
52.724998 29.963264 19.951799
52.575001 29.963264 19.959101
52.424999 29.963264 20.010201
52.275002 29.963264 20.002899
52.125 29.963264 20.002899
