# .PCD v0.7 - Point Cloud Data file format
VERSION 0.7
FIELDS x y z
SIZE 4 4 4
TYPE F F F
COUNT 1 1 1
WIDTH 1528
HEIGHT 1
VIEWPOINT 0 0 0 1 0 0 0
POINTS 1528
DATA ascii
0.456 -1.1657462 0.18132599
0.45449999 -1.1657462 0.18176399
0.45300001 -1.1657462 0.18263999
0.4515 -1.1657462 0.182202
0.45000002 -1.1657462 0.182567
0.44849998 -1.1657462 0.182202
0.447 -1.1657462 0.18176399
0.44550002 -1.1657462 0.183589
0.44400001 -1.1657462 0.18475699
0.4425 -1.1657462 0.18461101
0.44100001 -1.1657462 0.18461101
0.43949997 -1.1657462 0.18592499
0.43799999 -1.1657462 0.189356
0.43650001 -1.1657462 0.194612
0.435 -1.1657462 0.20176601
0.27149999 -1.1657462 0.207168
0.27000001 -1.1657462 0.18789601
0.2685 -1.1657462 0.168332
0.26699999 -1.1657462 0.14314699
0.26550001 -1.1657462 0.11847301
0.264 -1.1657462 0.10547899
0.26249999 -1.1657462 0.098690003
0.26100001 -1.1657462 0.095332004
0.2595 -1.1657462 0.092630997
0.25800002 -1.1657462 0.091025002
0.25650001 -1.1657462 0.090075999
0.255 -1.1657462 0.090149
0.25350001 -1.1657462 0.090440996
0.252 -1.1657462 0.090440996
0.25049999 -1.1657462 0.091025002
0.24900001 -1.1657462 0.091025002
0.2475 -1.1657462 0.090733007
0.24599999 -1.1657462 0.091097996
0.24450001 -1.1657462 0.090368003
0.243 -1.1657462 0.090003006
0.24150001 -1.1657462 0.089856997
0.24000001 -1.1657462 0.088981003
0.2385 -1.1657462 0.089272998
0.237 -1.1657462 0.089929998
0.23550001 -1.1657462 0.090295002
0.234 -1.1657462 0.090659998
0.2325 -1.1657462 0.090878993
0.23100001 -1.1657462 0.090514004
0.2295 -1.1657462 0.091243997
0.228 -1.1657462 0.088834994
0.2265 -1.1657462 0.088834994
0.22500001 -1.1657462 0.089491993
0.2235 -1.1657462 0.091025002
0.222 -1.1657462 0.091827996
0.22050001 -1.1657462 0.092265993
0.219 -1.1657462 0.09285
0.2175 -1.1657462 0.093799002
0.21600001 -1.1657462 0.095769994
0.2145 -1.1657462 0.099785
0.20549999 -1.1657462 0.21454099
0.1785 -1.1657462 0.211402
0.177 -1.1657462 0.030143
0.16049999 -1.1657462 0.040071003
0.15900001 -1.1657462 0.041823
0.1575 -1.1657462 0.042698998
0.15599999 -1.1657462 0.042771999
0.15449999 -1.1657462 0.041969001
0.153 -1.1657462 0.040362999
0.1515 -1.1657462 0.038610999
0.14999999 -1.1657462 0.037078001
0.1485 -1.1657462 0.034157999
0.147 -1.1657462 0.032697998
0.1455 -1.1657462 0.022916
0.69150001 -1.1563827 0.21198601
0.55199999 -1.1563827 0.207241
0.55050004 -1.1563827 0.20665699
0.54900002 -1.1563827 0.204978
0.54750001 -1.1563827 0.20308
0.546 -1.1563827 0.198116
0.54449999 -1.1563827 0.18468401
0.54299998 -1.1563827 0.166945
0.54149997 -1.1563827 0.14453399
0.54000002 -1.1563827 0.124313
0.53850001 -1.1563827 0.111465
0.537 -1.1563827 0.096134998
0.53549999 -1.1563827 0.091536
0.53399998 -1.1563827 0.088542998
0.4725 -1.1563827 0.088178001
0.47100002 -1.1563827 0.088834994
0.46950001 -1.1563827 0.087594002
0.4515 -1.1563827 0.21147501
0.45000002 -1.1563827 0.21096401
0.44849998 -1.1563827 0.21111
0.2685 -1.1563827 0.20672999
0.26699999 -1.1563827 0.190524
0.26550001 -1.1563827 0.170522
0.264 -1.1563827 0.14906001
0.26249999 -1.1563827 0.141322
0.26100001 -1.1563827 0.136869
0.2595 -1.1563827 0.133073
0.25800002 -1.1563827 0.131102
0.25650001 -1.1563827 0.130518
0.255 -1.1563827 0.130372
0.25350001 -1.1563827 0.129788
0.252 -1.1563827 0.12934999
0.25049999 -1.1563827 0.129131
0.24900001 -1.1563827 0.127744
0.2475 -1.1563827 0.128547
0.24599999 -1.1563827 0.128328
0.24450001 -1.1563827 0.12788999
0.243 -1.1563827 0.128839
0.24150001 -1.1563827 0.128766
0.24000001 -1.1563827 0.128474
0.2385 -1.1563827 0.128547
0.237 -1.1563827 0.12964201
0.23550001 -1.1563827 0.13059101
0.234 -1.1563827 0.130153
0.2325 -1.1563827 0.12942301
0.23100001 -1.1563827 0.12825501
0.2295 -1.1563827 0.127671
0.228 -1.1563827 0.12810899
0.2265 -1.1563827 0.12810899
0.22500001 -1.1563827 0.129934
0.2235 -1.1563827 0.12920401
0.222 -1.1563827 0.129715
0.22050001 -1.1563827 0.13059101
0.219 -1.1563827 0.13212399
0.2175 -1.1563827 0.13504399
0.21600001 -1.1563827 0.138621
0.2145 -1.1563827 0.141249
0.213 -1.1563827 0.15979099
0.2115 -1.1563827 0.178333
0.20999999 -1.1563827 0.19694799
0.20850001 -1.1563827 0.21476001
0.1785 -1.1563827 0.211694
0.177 -1.1563827 0.030435
0.1575 -1.1563827 0.045984
0.15599999 -1.1563827 0.048684999
0.15449999 -1.1563827 0.051020999
0.153 -1.1563827 0.052991997
0.1515 -1.1563827 0.05562
0.14999999 -1.1563827 0.056715004
0.1485 -1.1563827 0.056203999
0.147 -1.1563827 0.055328004
0.1455 -1.1563827 0.054306
0.14399999 -1.1563827 0.052554004
0.1425 -1.1563827 0.051459
0.69 -1.1470193 0.21183999
0.54900002 -1.1470193 0.20256899
0.54750001 -1.1470193 0.20110899
0.546 -1.1470193 0.19694799
0.54449999 -1.1470193 0.186217
0.54299998 -1.1470193 0.17117901
0.54149997 -1.1470193 0.145118
0.54000002 -1.1470193 0.127306
0.53850001 -1.1470193 0.111611
0.537 -1.1470193 0.096573003
0.53549999 -1.1470193 0.091025002
0.477 -1.1470193 0.089346007
0.47549999 -1.1470193 0.089491993
0.456 -1.1470193 0.21315399
0.26550001 -1.1470193 0.20629199
0.264 -1.1470193 0.19417399
0.26249999 -1.1470193 0.183954
0.26100001 -1.1470193 0.17672701
0.2595 -1.1470193 0.17198199
0.25800002 -1.1470193 0.16986501
0.25650001 -1.1470193 0.16979201
0.255 -1.1470193 0.17088699
0.25350001 -1.1470193 0.170449
0.252 -1.1470193 0.16957299
0.25049999 -1.1470193 0.170011
0.24900001 -1.1470193 0.16942701
0.2475 -1.1470193 0.169719
0.24599999 -1.1470193 0.16876999
0.24450001 -1.1470193 0.170084
0.243 -1.1470193 0.170303
0.24150001 -1.1470193 0.16957299
0.24000001 -1.1470193 0.168624
0.2385 -1.1470193 0.16876999
0.237 -1.1470193 0.16935401
0.23550001 -1.1470193 0.169135
0.234 -1.1470193 0.169135
0.2325 -1.1470193 0.16935401
0.23100001 -1.1470193 0.168697
0.2295 -1.1470193 0.168551
0.228 -1.1470193 0.170449
0.2265 -1.1470193 0.17125201
0.22500001 -1.1470193 0.169719
0.2235 -1.1470193 0.169719
0.222 -1.1470193 0.168989
0.22050001 -1.1470193 0.17066799
0.219 -1.1470193 0.17263901
0.2175 -1.1470193 0.17366099
0.21600001 -1.1470193 0.175851
0.2145 -1.1470193 0.181107
0.213 -1.1470193 0.197459
0.1785 -1.1470193 0.21505199
0.177 -1.1470193 0.030362001
0.16049999 -1.1470193 0.039852001
0.15900001 -1.1470193 0.042845003
0.1575 -1.1470193 0.045765001
0.15599999 -1.1470193 0.048319999
0.15449999 -1.1470193 0.050364003
0.153 -1.1470193 0.053211
0.1515 -1.1470193 0.05635
0.14999999 -1.1470193 0.058759
0.1485 -1.1470193 0.061094999
0.147 -1.1470193 0.063649997
0.1455 -1.1470193 0.065839998
0.14399999 -1.1470193 0.068176001
0.1425 -1.1470193 0.069197997
0.141 -1.1470193 0.069343999
0.13949999 -1.1470193 0.067956999
0.69 -1.1376559 0.211402
0.54750001 -1.1376559 0.203007
0.546 -1.1376559 0.19658299
0.54449999 -1.1376559 0.185706
0.54299998 -1.1376559 0.168989
0.54149997 -1.1376559 0.14468001
0.54000002 -1.1376559 0.128912
0.53850001 -1.1376559 0.113436
0.537 -1.1376559 0.096207999
0.53549999 -1.1376559 0.090368003
0.48300001 -1.1376559 0.087885998
0.4815 -1.1376559 0.088908002
0.45899999 -1.1376559 0.21359199
0.243 -1.1376559 0.20264201
0.24150001 -1.1376559 0.19979499
0.24000001 -1.1376559 0.19833499
0.2385 -1.1376559 0.197751
0.237 -1.1376559 0.19796999
0.23550001 -1.1376559 0.19818901
0.234 -1.1376559 0.19972199
0.2325 -1.1376559 0.20373701
0.1785 -1.1376559 0.21344601
0.177 -1.1376559 0.030435
0.16049999 -1.1376559 0.039414
0.15900001 -1.1376559 0.041895997
0.1575 -1.1376559 0.044669997
0.15599999 -1.1376559 0.048101
0.15449999 -1.1376559 0.050728999
0.153 -1.1376559 0.053284001
0.1515 -1.1376559 0.055400997
0.14999999 -1.1376559 0.057737
0.1485 -1.1376559 0.060219001
0.147 -1.1376559 0.062701002
0.1455 -1.1376559 0.065256
0.14399999 -1.1376559 0.067299999
0.1425 -1.1376559 0.070000999
0.141 -1.1376559 0.072628997
0.13949999 -1.1376559 0.074745998
0.138 -1.1376559 0.076935999
0.1365 -1.1376559 0.078979999
0.13500001 -1.1376559 0.080731995
0.12450001 -1.1376559 0.072117999
0.123 -1.1376559 0.069417
0.1215 -1.1376559 0.066132002
0.12 -1.1376559 0.062555
0.1185 -1.1376559 0.059781
0.117 -1.1376559 0.059197001
0.1155 -1.1376559 0.059635002
0.114 -1.1376559 0.057737
0.69 -1.1282926 0.21176699
0.54900002 -1.1282926 0.205562
0.54750001 -1.1282926 0.19709401
0.546 -1.1282926 0.18366201
0.54449999 -1.1282926 0.16088599
0.54299998 -1.1282926 0.14592099
0.54149997 -1.1282926 0.126065
0.54000002 -1.1282926 0.10993201
0.53850001 -1.1282926 0.096207999
0.537 -1.1282926 0.091682002
0.48749998 -1.1282926 0.089053996
0.486 -1.1282926 0.090440996
0.48449999 -1.1282926 0.095624
0.48300001 -1.1282926 0.106501
0.4815 -1.1282926 0.117816
0.48000002 -1.1282926 0.12920401
0.46200001 -1.1282926 0.21366499
0.243 -1.1282926 0.19848101
0.24150001 -1.1282926 0.19796999
0.24000001 -1.1282926 0.197751
0.2385 -1.1282926 0.198116
0.1785 -1.1282926 0.213884
0.177 -1.1282926 0.032697998
0.17550001 -1.1282926 0.030726999
0.16049999 -1.1282926 0.039632998
0.15900001 -1.1282926 0.042188
0.1575 -1.1282926 0.044816002
0.15599999 -1.1282926 0.047517002
0.15449999 -1.1282926 0.050071999
0.153 -1.1282926 0.052991997
0.1515 -1.1282926 0.05562
0.14999999 -1.1282926 0.057883002
0.1485 -1.1282926 0.060000002
0.147 -1.1282926 0.062409002
0.1455 -1.1282926 0.065329
0.14399999 -1.1282926 0.067373
0.1425 -1.1282926 0.069709003
0.141 -1.1282926 0.071607001
0.13949999 -1.1282926 0.073942997
0.117 -1.1282926 0.086645
0.1155 -1.1282926 0.087885998
0.69 -1.1189291 0.21242401
0.55050004 -1.1189291 0.20454001
0.54900002 -1.1189291 0.19161901
0.54750001 -1.1189291 0.16876999
0.546 -1.1189291 0.153586
0.54449999 -1.1189291 0.136796
0.54299998 -1.1189291 0.115261
0.54149997 -1.1189291 0.098836005
0.54000002 -1.1189291 0.093360998
0.53850001 -1.1189291 0.090368003
0.49199998 -1.1189291 0.091025002
0.4905 -1.1189291 0.093945004
0.48900002 -1.1189291 0.099347003
0.48749998 -1.1189291 0.109202
0.486 -1.1189291 0.119057
0.48449999 -1.1189291 0.12803601
0.48300001 -1.1189291 0.13519001
0.4815 -1.1189291 0.142198
0.48000002 -1.1189291 0.148111
0.46349999 -1.1189291 0.21366499
0.24599999 -1.1189291 0.199503
0.24450001 -1.1189291 0.19826201
0.243 -1.1189291 0.197678
0.24150001 -1.1189291 0.197532
0.24000001 -1.1189291 0.19833499
0.1785 -1.1189291 0.214687
0.177 -1.1189291 0.088762
0.17550001 -1.1189291 0.029704999
0.17399999 -1.1189291 0.028609999
0.16049999 -1.1189291 0.039706003
0.15900001 -1.1189291 0.042406999
0.1575 -1.1189291 0.045327
0.15599999 -1.1189291 0.047662999
0.15449999 -1.1189291 0.049998999
0.153 -1.1189291 0.053065002
0.1515 -1.1189291 0.055474002
0.14999999 -1.1189291 0.057883002
0.1485 -1.1189291 0.060364999
0.147 -1.1189291 0.062701002
0.1455 -1.1189291 0.064890996
0.14399999 -1.1189291 0.066935003
0.1425 -1.1189291 0.069636002
0.1035 -1.1189291 0.087010004
0.0735 -1.1189291 0.035764001
0.071999997 -1.1189291 0.033428002
0.070500001 -1.1189291 0.031091999
0.068999998 -1.1189291 0.028901998
0.067500003 -1.1189291 0.02715
0.066 -1.1189291 0.025471
0.064500004 -1.1189291 0.024595
0.5535 -1.1095656 0.207022
0.55199999 -1.1095656 0.194685
0.55050004 -1.1095656 0.17818701
0.54900002 -1.1095656 0.16015601
0.54750001 -1.1095656 0.14030001
0.546 -1.1095656 0.12205
0.54449999 -1.1095656 0.101172
0.54299998 -1.1095656 0.095477998
0.54149997 -1.1095656 0.091827996
0.49649999 -1.1095656 0.091755003
0.495 -1.1095656 0.095551006
0.49349999 -1.1095656 0.101464
0.49199998 -1.1095656 0.109129
0.4905 -1.1095656 0.116721
0.48900002 -1.1095656 0.125043
0.48749998 -1.1095656 0.133146
0.486 -1.1095656 0.139789
0.48449999 -1.1095656 0.146213
0.48300001 -1.1095656 0.15168799
0.46649998 -1.1095656 0.213884
0.24900001 -1.1095656 0.20037901
0.2475 -1.1095656 0.19848101
0.24599999 -1.1095656 0.198043
0.24450001 -1.1095656 0.198043
0.243 -1.1095656 0.19796999
0.177 -1.1095656 0.047152001
0.17550001 -1.1095656 0.029632
0.17399999 -1.1095656 0.028245
0.16049999 -1.1095656 0.039852001
0.15900001 -1.1095656 0.042261001
0.1575 -1.1095656 0.044816002
0.15599999 -1.1095656 0.047297999
0.15449999 -1.1095656 0.049780004
0.153 -1.1095656 0.052846
0.1515 -1.1095656 0.055328004
0.14999999 -1.1095656 0.057663999
0.1485 -1.1095656 0.060146
0.147 -1.1095656 0.062628001
0.1455 -1.1095656 0.064818002
0.091499999 -1.1095656 0.086936995
0.068999998 -1.1095656 0.048319999
0.067500003 -1.1095656 0.045619003
0.066 -1.1095656 0.042480003
0.064500004 -1.1095656 0.042188
0.063000001 -1.1095656 0.037881002
0.061499998 -1.1095656 0.036202002
0.060000002 -1.1095656 0.035034001
0.058499999 -1.1095656 0.033282001
0.057 -1.1095656 0.031603001
0.055500001 -1.1095656 0.029778
0.054000001 -1.1095656 0.026785001
0.052499998 -1.1095656 0.024303
0.051000003 -1.1095656 0.022770001
0.0495 -1.1095656 0.021383001
0.048 -1.1095656 0.019850001
0.69 -1.1002023 0.21235101
0.55500001 -1.1002023 0.20264201
0.5535 -1.1002023 0.185633
0.55199999 -1.1002023 0.17023
0.55050004 -1.1002023 0.149644
0.54900002 -1.1002023 0.12788999
0.54750001 -1.1002023 0.112122
0.546 -1.1002023 0.096645996
0.54449999 -1.1002023 0.093069002
0.54299998 -1.1002023 0.090514004
0.5025 -1.1002023 0.090586998
0.50099999 -1.1002023 0.093214996
0.49950001 -1.1002023 0.096207999
0.49800003 -1.1002023 0.102267
0.49649999 -1.1002023 0.108837
0.495 -1.1002023 0.116721
0.49349999 -1.1002023 0.124678
0.49199998 -1.1002023 0.13154
0.4905 -1.1002023 0.13767199
0.48900002 -1.1002023 0.14395
0.48749998 -1.1002023 0.15008199
0.486 -1.1002023 0.15460801
0.48449999 -1.1002023 0.15971801
0.48300001 -1.1002023 0.16511999
0.47100002 -1.1002023 0.21322699
0.25049999 -1.1002023 0.19935699
0.24900001 -1.1002023 0.19855401
0.2475 -1.1002023 0.19826201
0.24599999 -1.1002023 0.19826201
0.24450001 -1.1002023 0.198773
0.177 -1.1002023 0.21592799
0.17550001 -1.1002023 0.030215999
0.17399999 -1.1002023 0.028828999
0.1725 -1.1002023 0.028317999
0.15900001 -1.1002023 0.042114999
0.1575 -1.1002023 0.044597
0.15599999 -1.1002023 0.047297999
0.15449999 -1.1002023 0.050071999
0.153 -1.1002023 0.052772999
0.1515 -1.1002023 0.055109002
0.14999999 -1.1002023 0.057517998
0.1485 -1.1002023 0.059854001
0.147 -1.1002023 0.06219
0.076499999 -1.1002023 0.084308997
0.074999996 -1.1002023 0.080731995
0.0735 -1.1002023 0.078688003
0.060000002 -1.1002023 0.052335002
0.058499999 -1.1002023 0.050071999
0.057 -1.1002023 0.047954999
0.055500001 -1.1002023 0.046422001
0.054000001 -1.1002023 0.044085998
0.052499998 -1.1002023 0.041677002
0.051000003 -1.1002023 0.039268002
0.0495 -1.1002023 0.038027
0.048 -1.1002023 0.034304
0.046500001 -1.1002023 0.033792999
0.044999998 -1.1002023 0.032697998
0.043499999 -1.1002023 0.030580999
0.041999999 -1.1002023 0.028828999
0.0405 -1.1002023 0.027077001
0.038999997 -1.1002023 0.024449002
0.037499998 -1.1002023 0.02131
0.69 -1.0908388 0.21257
0.55799997 -1.0908388 0.20731401
0.55650002 -1.0908388 0.19161901
0.55500001 -1.0908388 0.17650799
0.5535 -1.0908388 0.159426
0.55199999 -1.0908388 0.133949
0.55050004 -1.0908388 0.12351
0.54900002 -1.0908388 0.100077
0.54750001 -1.0908388 0.096062005
0.546 -1.0908388 0.093433999
0.50700003 -1.0908388 0.092265993
0.50549996 -1.0908388 0.094967
0.50400001 -1.0908388 0.098617002
0.5025 -1.0908388 0.104165
0.50099999 -1.0908388 0.109859
0.49950001 -1.0908388 0.11584499
0.49800003 -1.0908388 0.121758
0.49649999 -1.0908388 0.12818199
0.495 -1.0908388 0.13497101
0.49349999 -1.0908388 0.14197899
0.49199998 -1.0908388 0.1476
0.4905 -1.0908388 0.152564
0.48900002 -1.0908388 0.15767398
0.48749998 -1.0908388 0.162127
0.486 -1.0908388 0.165923
0.48449999 -1.0908388 0.17242
0.48300001 -1.0908388 0.178625
0.4725 -1.0908388 0.214103
0.25350001 -1.0908388 0.19972199
0.252 -1.0908388 0.19833499
0.25049999 -1.0908388 0.197678
0.24900001 -1.0908388 0.198043
0.2475 -1.0908388 0.19972199
0.17550001 -1.0908388 0.21483301
0.17399999 -1.0908388 0.028537
0.1725 -1.0908388 0.028245
0.16049999 -1.0908388 0.039997999
0.15900001 -1.0908388 0.042042002
0.1575 -1.0908388 0.044013001
0.15599999 -1.0908388 0.047006004
0.15449999 -1.0908388 0.049998999
0.153 -1.0908388 0.052772999
0.1515 -1.0908388 0.055109002
0.14999999 -1.0908388 0.057445001
0.1485 -1.0908388 0.059561998
0.147 -1.0908388 0.061533
0.060000002 -1.0908388 0.076571003
0.058499999 -1.0908388 0.071971998
0.057 -1.0908388 0.067591995
0.043499999 -1.0908388 0.043575
0.041999999 -1.0908388 0.041458003
0.0405 -1.0908388 0.040801
0.038999997 -1.0908388 0.039852001
0.037499998 -1.0908388 0.037151001
0.035999998 -1.0908388 0.035544999
0.034499999 -1.0908388 0.033062998
0.033 -1.0908388 0.030215999
0.031500001 -1.0908388 0.028026
0.030000001 -1.0908388 0.026639
0.0285 -1.0908388 0.025617
0.027000001 -1.0908388 0.024303
0.025500001 -1.0908388 0.020580001
0.024 -1.0908388 0.011966
0.69 -1.0814755 0.212643
0.56099999 -1.0814755 0.209942
0.55949998 -1.0814755 0.20067099
0.55799997 -1.0814755 0.185633
0.55650002 -1.0814755 0.16731
0.55500001 -1.0814755 0.14103
0.5535 -1.0814755 0.123875
0.55199999 -1.0814755 0.114823
0.55050004 -1.0814755 0.108326
0.54900002 -1.0814755 0.103508
0.54750001 -1.0814755 0.099638999
0.546 -1.0814755 0.097156994
0.54449999 -1.0814755 0.095039994
0.54299998 -1.0814755 0.093142003
0.54149997 -1.0814755 0.091536
0.51600003 -1.0814755 0.092923
0.51450002 -1.0814755 0.093871996
0.51300001 -1.0814755 0.095258996
0.5115 -1.0814755 0.097156994
0.50999999 -1.0814755 0.099565998
0.50849998 -1.0814755 0.102413
0.50700003 -1.0814755 0.106209
0.50549996 -1.0814755 0.11102699
0.50400001 -1.0814755 0.116794
0.5025 -1.0814755 0.122707
0.50099999 -1.0814755 0.12862
0.49950001 -1.0814755 0.13365699
0.49800003 -1.0814755 0.138475
0.49649999 -1.0814755 0.143585
0.495 -1.0814755 0.14833
0.49349999 -1.0814755 0.153367
0.49199998 -1.0814755 0.159134
0.4905 -1.0814755 0.16439
0.48900002 -1.0814755 0.16957299
0.48749998 -1.0814755 0.17344199
0.47549999 -1.0814755 0.21359199
0.255 -1.0814755 0.1987
0.25350001 -1.0814755 0.197532
0.252 -1.0814755 0.197313
0.25049999 -1.0814755 0.198919
0.177 -1.0814755 0.21497899
0.17550001 -1.0814755 0.029559001
0.17399999 -1.0814755 0.028317999
0.1725 -1.0814755 0.028099
0.15900001 -1.0814755 0.042188
0.1575 -1.0814755 0.045035001
0.15599999 -1.0814755 0.047590002
0.15449999 -1.0814755 0.050217997
0.153 -1.0814755 0.052554004
0.1515 -1.0814755 0.054743998
0.14999999 -1.0814755 0.057007
0.1485 -1.0814755 0.059342999
0.147 -1.0814755 0.061898001
0.0495 -1.0814755 0.078979999
0.033 -1.0814755 0.044888999
0.031500001 -1.0814755 0.043429002
0.030000001 -1.0814755 0.041166
0.0285 -1.0814755 0.038976002
0.027000001 -1.0814755 0.03737
0.025500001 -1.0814755 0.035618
0.024 -1.0814755 0.033209
0.022499999 -1.0814755 0.0308
0.021 -1.0814755 0.028756
0.019499999 -1.0814755 0.026858
0.017999999 -1.0814755 0.025251999
0.0165 -1.0814755 0.023791999
0.015000001 -1.0814755 0.021893999
0.0135 -1.0814755 0.020142
0.012 -1.0814755 0.015543
0.68850005 -1.0721121 0.212497
0.5625 -1.0721121 0.20483199
0.56099999 -1.0721121 0.193663
0.55949998 -1.0721121 0.17760299
0.55799997 -1.0721121 0.153951
0.55650002 -1.0721121 0.14606701
0.55500001 -1.0721121 0.13811
0.5535 -1.0721121 0.132562
0.55199999 -1.0721121 0.127671
0.55050004 -1.0721121 0.123729
0.54900002 -1.0721121 0.119276
0.54750001 -1.0721121 0.115991
0.546 -1.0721121 0.112779
0.54449999 -1.0721121 0.110589
0.54299998 -1.0721121 0.109275
0.54149997 -1.0721121 0.108618
0.54000002 -1.0721121 0.107669
0.53850001 -1.0721121 0.10686599
0.537 -1.0721121 0.106501
0.53549999 -1.0721121 0.105625
0.53399998 -1.0721121 0.104968
0.53250003 -1.0721121 0.105114
0.53100002 -1.0721121 0.10577101
0.52950001 -1.0721121 0.105406
0.528 -1.0721121 0.105844
0.52649999 -1.0721121 0.106282
0.52499998 -1.0721121 0.106647
0.52349997 -1.0721121 0.106793
0.52200001 -1.0721121 0.10715801
0.5205 -1.0721121 0.108034
0.51899999 -1.0721121 0.109056
0.51749998 -1.0721121 0.110516
0.51600003 -1.0721121 0.11131901
0.51450002 -1.0721121 0.113217
0.51300001 -1.0721121 0.115626
0.5115 -1.0721121 0.118327
0.50999999 -1.0721121 0.120809
0.50849998 -1.0721121 0.123583
0.50700003 -1.0721121 0.12643
0.50549996 -1.0721121 0.129861
0.50400001 -1.0721121 0.134387
0.5025 -1.0721121 0.13883999
0.50099999 -1.0721121 0.14314699
0.49950001 -1.0721121 0.14730799
0.49800003 -1.0721121 0.152418
0.49649999 -1.0721121 0.158039
0.495 -1.0721121 0.16183499
0.49349999 -1.0721121 0.166361
0.49199998 -1.0721121 0.17154399
0.4905 -1.0721121 0.17570499
0.48900002 -1.0721121 0.17972
0.48749998 -1.0721121 0.18322401
0.486 -1.0721121 0.189794
0.48449999 -1.0721121 0.19687501
0.25800002 -1.0721121 0.199065
0.25650001 -1.0721121 0.198043
0.255 -1.0721121 0.197824
0.25350001 -1.0721121 0.19818901
0.252 -1.0721121 0.200598
0.177 -1.0721121 0.21461399
0.17550001 -1.0721121 0.030288998
0.17399999 -1.0721121 0.028537
0.15900001 -1.0721121 0.041677002
0.1575 -1.0721121 0.043648001
0.15599999 -1.0721121 0.046494998
0.15449999 -1.0721121 0.048539001
0.153 -1.0721121 0.051751003
0.1515 -1.0721121 0.054378998
0.14999999 -1.0721121 0.056568999
0.1485 -1.0721121 0.058832001
0.147 -1.0721121 0.061241001
0.037499998 -1.0721121 0.072628997
0.035999998 -1.0721121 0.067738004
0.034499999 -1.0721121 0.066569999
0.022499999 -1.0721121 0.047152001
0.021 -1.0721121 0.043648001
0.019499999 -1.0721121 0.040874001
0.017999999 -1.0721121 0.038976002
0.0165 -1.0721121 0.037151001
0.015000001 -1.0721121 0.035399001
0.0135 -1.0721121 0.033354998
0.012 -1.0721121 0.031456999
0.0105 -1.0721121 0.029996999
0.0089999996 -1.0721121 0.027222998
0.0075000003 -1.0721121 0.025909001
0.0060000001 -1.0721121 0.024595
0.0044999998 -1.0721121 0.022916
0.003 -1.0721121 0.021237001
0.0015 -1.0721121 0.015250999
0.68850005 -1.0627487 0.21235101
0.56550002 -1.0627487 0.208628
0.56400001 -1.0627487 0.19724
0.5625 -1.0627487 0.18191001
0.56099999 -1.0627487 0.17059499
0.55949998 -1.0627487 0.16548499
0.55799997 -1.0627487 0.160229
0.55650002 -1.0627487 0.15570299
0.55500001 -1.0627487 0.15161501
0.5535 -1.0627487 0.148184
0.55199999 -1.0627487 0.14475299
0.55050004 -1.0627487 0.14205199
0.54900002 -1.0627487 0.14044599
0.54750001 -1.0627487 0.138256
0.546 -1.0627487 0.136796
0.54449999 -1.0627487 0.135336
0.54299998 -1.0627487 0.134168
0.54149997 -1.0627487 0.132854
0.54000002 -1.0627487 0.133146
0.53850001 -1.0627487 0.13358401
0.537 -1.0627487 0.13351099
0.53549999 -1.0627487 0.13343799
0.53399998 -1.0627487 0.13358401
0.53250003 -1.0627487 0.13380301
0.53100002 -1.0627487 0.134022
0.52950001 -1.0627487 0.13365699
0.528 -1.0627487 0.133949
0.52649999 -1.0627487 0.13380301
0.52499998 -1.0627487 0.133876
0.52349997 -1.0627487 0.134022
0.52200001 -1.0627487 0.134533
0.5205 -1.0627487 0.13475201
0.51899999 -1.0627487 0.135701
0.51749998 -1.0627487 0.137088
0.51600003 -1.0627487 0.138475
0.51450002 -1.0627487 0.13935101
0.51300001 -1.0627487 0.14022699
0.5115 -1.0627487 0.14205199
0.50999999 -1.0627487 0.143658
0.50849998 -1.0627487 0.145337
0.50700003 -1.0627487 0.14730799
0.50549996 -1.0627487 0.14979
0.50400001 -1.0627487 0.152637
0.5025 -1.0627487 0.15548399
0.50099999 -1.0627487 0.15847699
0.49950001 -1.0627487 0.16147001
0.49800003 -1.0627487 0.164682
0.49649999 -1.0627487 0.16818599
0.495 -1.0627487 0.17198199
0.49349999 -1.0627487 0.17672701
0.49199998 -1.0627487 0.18132599
0.4905 -1.0627487 0.18548699
0.48900002 -1.0627487 0.18848
0.48749998 -1.0627487 0.19271401
0.486 -1.0627487 0.198773
0.48449999 -1.0627487 0.20381001
0.48300001 -1.0627487 0.207752
0.26100001 -1.0627487 0.19986801
0.2595 -1.0627487 0.19796999
0.25800002 -1.0627487 0.197678
0.25650001 -1.0627487 0.197678
0.255 -1.0627487 0.198846
0.17550001 -1.0627487 0.031310998
0.17399999 -1.0627487 0.028975001
0.1725 -1.0627487 0.028026
0.15900001 -1.0627487 0.040946998
0.1575 -1.0627487 0.043648001
0.15599999 -1.0627487 0.046349
0.15449999 -1.0627487 0.048684999
0.153 -1.0627487 0.051093999
0.1515 -1.0627487 0.054087002
0.14999999 -1.0627487 0.056276999
0.1485 -1.0627487 0.058394
0.147 -1.0627487 0.060948998
0.021 -1.0627487 0.060438
0.019499999 -1.0627487 0.057663999
0.017999999 -1.0627487 0.054452002
0.0165 -1.0627487 0.052772999
0.015000001 -1.0627487 0.050364003
0.0135 -1.0627487 0.047954999
0.012 -1.0627487 0.045910999
0.0105 -1.0627487 0.043282997
-0 -1.0627487 0.029267
-0.0015 -1.0627487 0.026420001
-0.003 -1.0627487 0.024303
-0.0044999998 -1.0627487 0.023062002
-0.0060000001 -1.0627487 0.020506999
-0.0075000003 -1.0627487 0.019485001
0.68850005 -1.0533853 0.21242401
0.56699997 -1.0533853 0.20271501
0.56550002 -1.0533853 0.18782301
0.56400001 -1.0533853 0.17847899
0.5625 -1.0533853 0.174683
0.56099999 -1.0533853 0.172712
0.55949998 -1.0533853 0.170449
0.55799997 -1.0533853 0.16840501
0.55650002 -1.0533853 0.167164
0.55050004 -1.0533853 0.161689
0.54900002 -1.0533853 0.160667
0.54750001 -1.0533853 0.160229
0.546 -1.0533853 0.15986399
0.54449999 -1.0533853 0.15986399
0.54149997 -1.0533853 0.160667
0.54000002 -1.0533853 0.160229
0.53850001 -1.0533853 0.160521
0.537 -1.0533853 0.16110501
0.53549999 -1.0533853 0.16103201
0.53399998 -1.0533853 0.16095901
0.53250003 -1.0533853 0.16095901
0.53100002 -1.0533853 0.16095901
0.52950001 -1.0533853 0.16110501
0.528 -1.0533853 0.16110501
0.52649999 -1.0533853 0.16110501
0.52499998 -1.0533853 0.16147001
0.52200001 -1.0533853 0.16154301
0.5205 -1.0533853 0.16183499
0.51899999 -1.0533853 0.16183499
0.51749998 -1.0533853 0.161981
0.51600003 -1.0533853 0.161981
0.50700003 -1.0533853 0.164828
0.50549996 -1.0533853 0.166361
0.50400001 -1.0533853 0.16789399
0.5025 -1.0533853 0.16949999
0.50099999 -1.0533853 0.17125201
0.49950001 -1.0533853 0.173223
0.49800003 -1.0533853 0.175267
0.49649999 -1.0533853 0.178333
0.495 -1.0533853 0.18191001
0.49349999 -1.0533853 0.18599801
0.49199998 -1.0533853 0.18891799
0.4905 -1.0533853 0.192495
0.48900002 -1.0533853 0.196729
0.48749998 -1.0533853 0.20089
0.486 -1.0533853 0.20592701
0.264 -1.0533853 0.20118199
0.26249999 -1.0533853 0.198919
0.26100001 -1.0533853 0.19833499
0.2595 -1.0533853 0.198043
0.25800002 -1.0533853 0.19818901
0.25650001 -1.0533853 0.20096301
0.17550001 -1.0533853 0.21519801
0.17399999 -1.0533853 0.028099
0.1725 -1.0533853 0.027515002
0.171 -1.0533853 0.027296001
0.15900001 -1.0533853 0.041311998
0.1575 -1.0533853 0.043429002
0.15599999 -1.0533853 0.045838002
0.15449999 -1.0533853 0.048393004
0.153 -1.0533853 0.051239997
0.1515 -1.0533853 0.054306
0.14999999 -1.0533853 0.056787997
0.1485 -1.0533853 0.058539998
0.147 -1.0533853 0.060364999
0.021 -1.0533853 0.078614995
0.019499999 -1.0533853 0.076716997
0.0075000003 -1.0533853 0.051970001
0.0060000001 -1.0533853 0.050802
0.0044999998 -1.0533853 0.049488001
0.003 -1.0533853 0.047590002
0.0015 -1.0533853 0.044888999
-0 -1.0533853 0.042626001
-0.0089999996 -1.0533853 0.030726999
-0.0105 -1.0533853 0.028464001
-0.012 -1.0533853 0.026273999
-0.0135 -1.0533853 0.024084
-0.015000001 -1.0533853 0.021967001
-0.0165 -1.0533853 0.019192999
-0.017999999 -1.0533853 0.010652
0.69 -1.0440217 0.212716
0.56999999 -1.0440217 0.208482
0.56850004 -1.0440217 0.19359
0.56699997 -1.0440217 0.182494
0.56550002 -1.0440217 0.179428
0.49800003 -1.0440217 0.18366201
0.49649999 -1.0440217 0.18643601
0.495 -1.0440217 0.189356
0.49349999 -1.0440217 0.192276
0.49199998 -1.0440217 0.195342
0.4905 -1.0440217 0.19855401
0.48900002 -1.0440217 0.203226
0.26699999 -1.0440217 0.200087
0.26550001 -1.0440217 0.199138
0.264 -1.0440217 0.198043
0.26249999 -1.0440217 0.197678
0.26100001 -1.0440217 0.197824
0.2595 -1.0440217 0.199503
0.17399999 -1.0440217 0.21490601
0.1725 -1.0440217 0.027441999
0.171 -1.0440217 0.027369
0.16949999 -1.0440217 0.027588001
0.16049999 -1.0440217 0.037297003
0.15900001 -1.0440217 0.039997999
0.1575 -1.0440217 0.042698998
0.15599999 -1.0440217 0.045107998
0.15449999 -1.0440217 0.047371
0.153 -1.0440217 0.049633998
0.1515 -1.0440217 0.051970001
0.003 -1.0440217 0.06219
0.0015 -1.0440217 0.059635002
-0 -1.0440217 0.056203999
-0.0015 -1.0440217 0.053284001
-0.003 -1.0440217 0.050728999
-0.0044999998 -1.0440217 0.048319999
-0.0060000001 -1.0440217 0.047371
-0.0075000003 -1.0440217 0.045327
-0.0089999996 -1.0440217 0.04321
-0.0105 -1.0440217 0.040655002
-0.012 -1.0440217 0.039195001
-0.0135 -1.0440217 0.037735
-0.015000001 -1.0440217 0.035764001
-0.0165 -1.0440217 0.033647001
-0.017999999 -1.0440217 0.031238001
-0.019499999 -1.0440217 0.028828999
-0.021 -1.0440217 0.026493
-0.022499999 -1.0440217 0.025251999
-0.024 -1.0440217 0.022477999
-0.025500001 -1.0440217 0.020361001
-0.027000001 -1.0440217 0.013937
0.69 -1.0346584 0.21235101
0.57300001 -1.0346584 0.209796
0.5715 -1.0346584 0.198773
0.56999999 -1.0346584 0.18599801
0.56850004 -1.0346584 0.18205599
0.49800003 -1.0346584 0.18723899
0.49649999 -1.0346584 0.19132701
0.495 -1.0346584 0.194612
0.49349999 -1.0346584 0.197313
0.49199998 -1.0346584 0.199503
0.4905 -1.0346584 0.20526999
0.2685 -1.0346584 0.199503
0.26699999 -1.0346584 0.19826201
0.26550001 -1.0346584 0.197313
0.264 -1.0346584 0.19789699
0.26249999 -1.0346584 0.19796999
0.17550001 -1.0346584 0.21424901
0.17399999 -1.0346584 0.028317999
0.1725 -1.0346584 0.027077001
0.171 -1.0346584 0.026785001
0.16949999 -1.0346584 0.02715
0.168 -1.0346584 0.027515002
0.1665 -1.0346584 0.02788
0.16499999 -1.0346584 0.028464001
0.1635 -1.0346584 0.031675998
0.162 -1.0346584 0.034596
0.16049999 -1.0346584 0.04321
0.15900001 -1.0346584 0.052919
0.1575 -1.0346584 0.054159999
0.15599999 -1.0346584 0.045400001
0.15449999 -1.0346584 0.047736
0.153 -1.0346584 0.049780004
-0.0015 -1.0346584 0.071825996
-0.003 -1.0346584 0.068322003
-0.0044999998 -1.0346584 0.064672001
-0.0060000001 -1.0346584 0.060948998
-0.0075000003 -1.0346584 0.057152998
-0.0089999996 -1.0346584 0.055255
-0.0105 -1.0346584 0.053502999
-0.012 -1.0346584 0.051532
-0.0135 -1.0346584 0.049633998
-0.015000001 -1.0346584 0.047736
-0.0165 -1.0346584 0.045691997
-0.017999999 -1.0346584 0.043356001
-0.019499999 -1.0346584 0.041093003
-0.021 -1.0346584 0.039049
-0.022499999 -1.0346584 0.036421001
-0.024 -1.0346584 0.034231
-0.025500001 -1.0346584 0.032990001
-0.027000001 -1.0346584 0.031165
-0.0285 -1.0346584 0.028828999
-0.030000001 -1.0346584 0.026712
-0.031500001 -1.0346584 0.025325
-0.033 -1.0346584 0.024303
-0.034499999 -1.0346584 0.022112999
-0.035999998 -1.0346584 0.015616
-0.037499998 -1.0346584 0.010287
0.69 -1.025295 0.21257
0.57450002 -1.025295 0.20373701
0.57300001 -1.025295 0.189429
0.5715 -1.025295 0.18409999
0.50099999 -1.025295 0.18731199
0.49950001 -1.025295 0.19015901
0.49800003 -1.025295 0.193517
0.49649999 -1.025295 0.19658299
0.495 -1.025295 0.19935699
0.49349999 -1.025295 0.20242301
0.27149999 -1.025295 0.19994101
0.27000001 -1.025295 0.19833499
0.2685 -1.025295 0.19796999
0.26699999 -1.025295 0.197459
0.26550001 -1.025295 0.19826201
0.264 -1.025295 0.20016
0.17550001 -1.025295 0.21424901
0.17399999 -1.025295 0.028683001
0.1725 -1.025295 0.027369
0.171 -1.025295 0.028317999
0.16949999 -1.025295 0.029632
0.168 -1.025295 0.029048
0.1665 -1.025295 0.027515002
0.16499999 -1.025295 0.028975001
0.1635 -1.025295 0.03153
0.162 -1.025295 0.034157999
0.16049999 -1.025295 0.046787001
0.15900001 -1.025295 0.065693997
0.1575 -1.025295 0.044451002
0.15599999 -1.025295 0.050875001
0.15449999 -1.025295 0.050875001
0.153 -1.025295 0.050583001
-0.0105 -1.025295 0.067664996
-0.012 -1.025295 0.064745001
-0.0135 -1.025295 0.061971001
-0.015000001 -1.025295 0.059488997
-0.0165 -1.025295 0.057445001
-0.017999999 -1.025295 0.055765998
-0.019499999 -1.025295 0.054306
-0.021 -1.025295 0.052480999
-0.022499999 -1.025295 0.048539001
-0.024 -1.025295 0.045691997
-0.025500001 -1.025295 0.044158999
-0.027000001 -1.025295 0.042845003
-0.0285 -1.025295 0.041604001
-0.030000001 -1.025295 0.039997999
-0.031500001 -1.025295 0.038245998
-0.033 -1.025295 0.036274999
-0.034499999 -1.025295 0.034304
-0.035999998 -1.025295 0.032552
-0.037499998 -1.025295 0.030580999
-0.038999997 -1.025295 0.028464001
-0.0405 -1.025295 0.026565999
-0.041999999 -1.025295 0.024667999
-0.043499999 -1.025295 0.022843
-0.044999998 -1.025295 0.021748001
-0.046500001 -1.025295 0.020142
-0.048 -1.025295 0.019192999
-0.0495 -1.025295 0.010579
0.69 -1.0159316 0.212935
0.57749999 -1.0159316 0.207533
0.57599998 -1.0159316 0.19373599
0.57450002 -1.0159316 0.18512201
0.57300001 -1.0159316 0.18176399
0.5025 -1.0159316 0.189356
0.50099999 -1.0159316 0.19242199
0.49950001 -1.0159316 0.195926
0.49800003 -1.0159316 0.199503
0.49649999 -1.0159316 0.203299
0.495 -1.0159316 0.206365
0.273 -1.0159316 0.19943
0.27149999 -1.0159316 0.19796999
0.27000001 -1.0159316 0.19716701
0.2685 -1.0159316 0.197459
0.26699999 -1.0159316 0.19840799
0.17550001 -1.0159316 0.21512499
0.17399999 -1.0159316 0.028026
0.1725 -1.0159316 0.026930999
0.171 -1.0159316 0.027077001
0.16949999 -1.0159316 0.027588001
0.168 -1.0159316 0.027660999
0.1665 -1.0159316 0.030288998
0.16499999 -1.0159316 0.052042998
0.1635 -1.0159316 0.066204995
0.162 -1.0159316 0.067810997
0.16049999 -1.0159316 0.069781996
0.15900001 -1.0159316 0.071168996
0.1575 -1.0159316 0.041458003
0.15599999 -1.0159316 0.042771999
0.15449999 -1.0159316 0.044962
0.153 -1.0159316 0.047954999
0.1515 -1.0159316 0.050948001
0.14999999 -1.0159316 0.053284001
-0.019499999 -1.0159316 0.066496998
-0.021 -1.0159316 0.063431002
-0.022499999 -1.0159316 0.060729999
-0.024 -1.0159316 0.059561998
-0.025500001 -1.0159316 0.056276999
-0.027000001 -1.0159316 0.055255
-0.0285 -1.0159316 0.052700002
-0.030000001 -1.0159316 0.050655998
-0.031500001 -1.0159316 0.04905
-0.033 -1.0159316 0.047443997
-0.034499999 -1.0159316 0.046494998
-0.035999998 -1.0159316 0.043575
-0.037499998 -1.0159316 0.041604001
-0.038999997 -1.0159316 0.040143996
-0.0405 -1.0159316 0.037953999
-0.041999999 -1.0159316 0.035326
-0.043499999 -1.0159316 0.033209
-0.044999998 -1.0159316 0.031895
-0.046500001 -1.0159316 0.030288998
-0.048 -1.0159316 0.028828999
-0.0495 -1.0159316 0.027222998
-0.051000003 -1.0159316 0.026930999
-0.052499998 -1.0159316 0.025836002
-0.054000001 -1.0159316 0.023499999
-0.055500001 -1.0159316 0.021237001
-0.057 -1.0159316 0.017879
0.69 -1.0065681 0.21322699
0.58050001 -1.0065681 0.210526
0.579 -1.0065681 0.19986801
0.57749999 -1.0065681 0.18775
0.57599998 -1.0065681 0.18322401
0.50549996 -1.0065681 0.18826099
0.50400001 -1.0065681 0.19096199
0.5025 -1.0065681 0.19446599
0.50099999 -1.0065681 0.198116
0.49950001 -1.0065681 0.201839
0.49800003 -1.0065681 0.20519701
0.27599999 -1.0065681 0.19986801
0.27450001 -1.0065681 0.198919
0.273 -1.0065681 0.19840799
0.27149999 -1.0065681 0.198116
0.27000001 -1.0065681 0.19848101
0.2685 -1.0065681 0.20037901
0.17550001 -1.0065681 0.214322
0.17399999 -1.0065681 0.028537
0.1725 -1.0065681 0.027441999
0.171 -1.0065681 0.026858
0.16949999 -1.0065681 0.026785001
0.168 -1.0065681 0.027004
0.162 -1.0065681 0.032990001
0.16049999 -1.0065681 0.035983
0.15900001 -1.0065681 0.039049
0.1575 -1.0065681 0.041749999
0.15599999 -1.0065681 0.044232003
0.15449999 -1.0065681 0.046422001
0.153 -1.0065681 0.048028
0.1515 -1.0065681 0.050802
0.14999999 -1.0065681 0.053211
0.1485 -1.0065681 0.055328004
0.147 -1.0065681 0.057445001
-0.027000001 -1.0065681 0.069051996
-0.0285 -1.0065681 0.066496998
-0.030000001 -1.0065681 0.063868999
-0.031500001 -1.0065681 0.060657002
-0.033 -1.0065681 0.058320999
-0.034499999 -1.0065681 0.056568999
-0.035999998 -1.0065681 0.053722002
-0.037499998 -1.0065681 0.052846
-0.038999997 -1.0065681 0.050217997
-0.0405 -1.0065681 0.049561001
-0.041999999 -1.0065681 0.048028
-0.043499999 -1.0065681 0.046349
-0.044999998 -1.0065681 0.044013001
-0.046500001 -1.0065681 0.041384999
-0.048 -1.0065681 0.039779
-0.0495 -1.0065681 0.037881002
-0.051000003 -1.0065681 0.037005
-0.052499998 -1.0065681 0.034741998
-0.054000001 -1.0065681 0.033574
-0.055500001 -1.0065681 0.032333001
-0.057 -1.0065681 0.030726999
-0.058499999 -1.0065681 0.028756
-0.060000002 -1.0065681 0.026347
-0.061499998 -1.0065681 0.025325
-0.063000001 -1.0065681 0.022697
-0.064500004 -1.0065681 0.020872001
-0.066 -1.0065681 0.01912
-0.067500003 -1.0065681 0.018244
-0.068999998 -1.0065681 0.015616
0.69 -0.99720478 0.21337301
0.58200002 -0.99720478 0.207168
0.58050001 -0.99720478 0.191254
0.579 -0.99720478 0.18402699
0.50849998 -0.99720478 0.18753099
0.50700003 -0.99720478 0.19015901
0.50549996 -0.99720478 0.193298
0.50400001 -0.99720478 0.19680201
0.5025 -0.99720478 0.200598
0.50099999 -0.99720478 0.204467
0.2775 -0.99720478 0.199211
0.27599999 -0.99720478 0.19826201
0.27450001 -0.99720478 0.198116
0.273 -0.99720478 0.19855401
0.27149999 -0.99720478 0.200233
0.17550001 -0.99720478 0.214395
0.17399999 -0.99720478 0.028464001
0.1725 -0.99720478 0.027296001
0.1575 -0.99720478 0.041093003
0.15599999 -0.99720478 0.043720998
0.15449999 -0.99720478 0.045619003
0.153 -0.99720478 0.047809001
0.1515 -0.99720478 0.049998999
0.14999999 -0.99720478 0.052042998
-0.035999998 -0.99720478 0.067664996
-0.037499998 -0.99720478 0.065329
-0.038999997 -0.99720478 0.062919997
-0.0405 -0.99720478 0.061168
-0.041999999 -0.99720478 0.059488997
-0.043499999 -0.99720478 0.056933999
-0.044999998 -0.99720478 0.055765998
-0.046500001 -0.99720478 0.054159999
-0.048 -0.99720478 0.051093999
-0.0495 -0.99720478 0.048465997
-0.051000003 -0.99720478 0.048174001
-0.052499998 -0.99720478 0.045984
-0.054000001 -0.99720478 0.044232003
-0.055500001 -0.99720478 0.042771999
-0.057 -0.99720478 0.040727999
-0.058499999 -0.99720478 0.038902998
-0.060000002 -0.99720478 0.037589002
-0.061499998 -0.99720478 0.036202002
-0.063000001 -0.99720478 0.034887999
-0.064500004 -0.99720478 0.032625001
-0.066 -0.99720478 0.031165
-0.067500003 -0.99720478 0.030143
-0.068999998 -0.99720478 0.028609999
-0.070500001 -0.99720478 0.026858
-0.071999997 -0.99720478 0.025471
-0.0735 -0.99720478 0.023864999
-0.074999996 -0.99720478 0.022259001
-0.076499999 -0.99720478 0.020361001
-0.077999994 -0.99720478 0.019704001
-0.079500005 -0.99720478 0.011674
0.69 -0.98784137 0.2133
0.58499998 -0.98784137 0.21081799
0.58350003 -0.98784137 0.192276
0.58200002 -0.98784137 0.185706
0.58050001 -0.98784137 0.18271299
0.50999999 -0.98784137 0.18928301
0.50849998 -0.98784137 0.19242199
0.50700003 -0.98784137 0.19585299
0.50549996 -0.98784137 0.19935699
0.50400001 -0.98784137 0.20249599
0.5025 -0.98784137 0.20526999
0.28049999 -0.98784137 0.19972199
0.27899998 -0.98784137 0.1987
0.2775 -0.98784137 0.19848101
0.27599999 -0.98784137 0.19855401
0.27450001 -0.98784137 0.19986801
0.17399999 -0.98784137 0.029121
0.1725 -0.98784137 0.028099
0.171 -0.98784137 0.027369
0.1575 -0.98784137 0.040801
0.15599999 -0.98784137 0.043429002
0.15449999 -0.98784137 0.046056997
0.153 -0.98784137 0.048101
0.1515 -0.98784137 0.050071999
0.14999999 -0.98784137 0.052480999
0.1485 -0.98784137 0.055036001
-0.046500001 -0.98784137 0.065767005
-0.048 -0.98784137 0.063431002
-0.0495 -0.98784137 0.060657002
-0.051000003 -0.98784137 0.058394
-0.052499998 -0.98784137 0.057663999
-0.054000001 -0.98784137 0.056130998
-0.055500001 -0.98784137 0.053722002
-0.057 -0.98784137 0.052042998
-0.058499999 -0.98784137 0.050728999
-0.060000002 -0.98784137 0.04905
-0.061499998 -0.98784137 0.047225002
-0.076499999 -0.98784137 0.031675998
-0.077999994 -0.98784137 0.029924
-0.079500005 -0.98784137 0.028901998
-0.081 -0.98784137 0.026273999
-0.082499996 -0.98784137 0.024449002
-0.083999999 -0.98784137 0.023646001
-0.085500002 -0.98784137 0.022770001
-0.086999997 -0.98784137 0.021383001
-0.088500001 -0.98784137 0.020580001
-0.089999996 -0.98784137 0.012258001
0.69 -0.9784779 0.21337301
0.588 -0.9784779 0.21089099
0.58649999 -0.9784779 0.199065
0.58499998 -0.9784779 0.186217
0.58350003 -0.9784779 0.18315099
0.51300001 -0.9784779 0.18818799
0.5115 -0.9784779 0.191181
0.50999999 -0.9784779 0.19417399
0.50849998 -0.9784779 0.19716701
0.50700003 -0.9784779 0.200598
0.50549996 -0.9784779 0.20395599
0.28349999 -0.9784779 0.20067099
0.28200001 -0.9784779 0.19833499
0.28049999 -0.9784779 0.198116
0.27899998 -0.9784779 0.19855401
0.2775 -0.9784779 0.199138
0.17399999 -0.9784779 0.21505199
0.1725 -0.9784779 0.027441999
0.171 -0.9784779 0.026712
0.16949999 -0.9784779 0.026639
0.1575 -0.9784779 0.040436
0.15599999 -0.9784779 0.042553
0.15449999 -0.9784779 0.045035001
0.153 -0.9784779 0.047809001
0.1515 -0.9784779 0.050071999
0.14999999 -0.9784779 0.052115999
0.1485 -0.9784779 0.054671001
-0.055500001 -0.9784779 0.065109998
-0.057 -0.9784779 0.064161003
-0.058499999 -0.9784779 0.062262997
-0.060000002 -0.9784779 0.059124
-0.061499998 -0.9784779 0.056861002
-0.063000001 -0.9784779 0.05562
-0.089999996 -0.9784779 0.029486001
-0.091499999 -0.9784779 0.029339999
-0.093000002 -0.9784779 0.02715
-0.094499998 -0.9784779 0.025690001
-0.096000001 -0.9784779 0.024375999
-0.097500004 -0.9784779 0.022843
-0.098999999 -0.9784779 0.021091001
-0.1005 -0.9784779 0.019704001
-0.10200001 -0.9784779 0.018244
-0.1035 -0.9784779 0.01547
-0.105 -0.9784779 0.010871001
0.69 -0.96911454 0.21359199
0.58950001 -0.96911454 0.20950399
0.588 -0.96911454 0.18877201
0.58649999 -0.96911454 0.18468401
0.58499998 -0.96911454 0.18234801
0.51450002 -0.96911454 0.189794
0.51300001 -0.96911454 0.193298
0.5115 -0.96911454 0.19709401
0.50999999 -0.96911454 0.20016
0.50849998 -0.96911454 0.203372
0.285 -0.96911454 0.199503
0.28349999 -0.96911454 0.19818901
0.28200001 -0.96911454 0.19796999
0.28049999 -0.96911454 0.19848101
0.27899998 -0.96911454 0.19994101
0.17399999 -0.96911454 0.214687
0.1725 -0.96911454 0.029267
0.171 -0.96911454 0.028245
0.16949999 -0.96911454 0.027077001
0.168 -0.96911454 0.026565999
0.1575 -0.96911454 0.039852001
0.15599999 -0.96911454 0.042406999
0.15449999 -0.96911454 0.044816002
0.153 -0.96911454 0.046641
0.1515 -0.96911454 0.049268998
0.14999999 -0.96911454 0.051532
0.1485 -0.96911454 0.053867999
-0.105 -0.96911454 0.029267
-0.1065 -0.96911454 0.027369
-0.108 -0.96911454 0.025178999
-0.1095 -0.96911454 0.023791999
-0.111 -0.96911454 0.022551
-0.1125 -0.96911454 0.021164
-0.114 -0.96911454 0.017952001
0.69 -0.95975107 0.213008
0.59250003 -0.95975107 0.21037999
0.59099996 -0.95975107 0.204175
0.58950001 -0.95975107 0.18629
0.588 -0.95975107 0.18329701
0.51749998 -0.95975107 0.188042
0.51600003 -0.95975107 0.190816
0.51450002 -0.95975107 0.19380899
0.51300001 -0.95975107 0.197386
0.5115 -0.95975107 0.20213099
0.50999999 -0.95975107 0.20680301
0.28799999 -0.95975107 0.200452
0.28650001 -0.95975107 0.199138
0.285 -0.95975107 0.198627
0.28349999 -0.95975107 0.19840799
0.28200001 -0.95975107 0.1987
0.1725 -0.95975107 0.21490601
0.171 -0.95975107 0.027077001
0.16949999 -0.95975107 0.026639
0.168 -0.95975107 0.026420001
0.1665 -0.95975107 0.026858
0.1575 -0.95975107 0.039268002
0.15599999 -0.95975107 0.042042002
0.15449999 -0.95975107 0.044158999
0.153 -0.95975107 0.046203002
0.1515 -0.95975107 0.048758
0.14999999 -0.95975107 0.051020999
-0.117 -0.95975107 0.028537
-0.1185 -0.95975107 0.027660999
-0.12 -0.95975107 0.026493
-0.1215 -0.95975107 0.025251999
-0.123 -0.95975107 0.025398001
-0.12450001 -0.95975107 0.02423
-0.126 -0.95975107 0.022259001
-0.1275 -0.95975107 0.020945
-0.12900001 -0.95975107 0.018244
-0.1305 -0.95975107 0.014447999
0.69 -0.95038772 0.21315399
0.59399998 -0.95038772 0.20789801
0.59250003 -0.95038772 0.188115
0.59099996 -0.95038772 0.18409999
0.51899999 -0.95038772 0.186655
0.51749998 -0.95038772 0.19234899
0.51600003 -0.95038772 0.198043
0.51450002 -0.95038772 0.20351799
0.51300001 -0.95038772 0.20746
0.29100001 -0.95038772 0.20037901
0.2895 -0.95038772 0.19899201
0.28799999 -0.95038772 0.19848101
0.28650001 -0.95038772 0.19833499
0.285 -0.95038772 0.19826201
0.28349999 -0.95038772 0.20067099
0.1725 -0.95038772 0.214176
0.171 -0.95038772 0.027004
0.16949999 -0.95038772 0.026493
0.168 -0.95038772 0.026565999
0.1665 -0.95038772 0.026930999
0.1575 -0.95038772 0.039706003
0.15599999 -0.95038772 0.042188
0.15449999 -0.95038772 0.044158999
0.153 -0.95038772 0.045910999
0.1515 -0.95038772 0.048830997
0.14999999 -0.95038772 0.051532
-0.077999994 -0.95038772 0.072555996
-0.079500005 -0.95038772 0.071534
-0.081 -0.95038772 0.070657998
-0.082499996 -0.95038772 0.069636002
-0.083999999 -0.95038772 0.068613999
-0.1365 -0.95038772 0.02715
-0.138 -0.95038772 0.025762999
-0.13949999 -0.95038772 0.024522001
-0.141 -0.95038772 0.023354001
-0.1425 -0.95038772 0.022551
-0.14399999 -0.95038772 0.021675002
-0.1455 -0.95038772 0.019923
-0.147 -0.95038772 0.019192999
-0.1485 -0.95038772 0.01255
0.597 -0.9410243 0.20906599
0.59549999 -0.9410243 0.191181
0.59399998 -0.9410243 0.18512201
0.59250003 -0.9410243 0.182421
0.52200001 -0.9410243 0.189502
0.5205 -0.9410243 0.191765
0.51899999 -0.9410243 0.19439301
0.51749998 -0.9410243 0.196729
0.51600003 -0.9410243 0.199065
0.51450002 -0.9410243 0.20512401
0.294 -0.9410243 0.20118199
0.29249999 -0.9410243 0.199138
0.29100001 -0.9410243 0.19818901
0.2895 -0.9410243 0.19833499
0.28799999 -0.9410243 0.198627
0.28650001 -0.9410243 0.19928399
0.1725 -0.9410243 0.214468
0.171 -0.9410243 0.026785001
0.16949999 -0.9410243 0.026565999
0.168 -0.9410243 0.026639
0.1665 -0.9410243 0.026639
0.16499999 -0.9410243 0.02715
0.1575 -0.9410243 0.039997999
0.15599999 -0.9410243 0.042261001
0.15449999 -0.9410243 0.044378001
0.153 -0.9410243 0.046714
0.1515 -0.9410243 0.049196001
0.14999999 -0.9410243 0.051313002
-0.086999997 -0.9410243 0.075184003
-0.088500001 -0.9410243 0.074161999
-0.089999996 -0.9410243 0.072044998
-0.091499999 -0.9410243 0.070000999
-0.093000002 -0.9410243 0.067810997
-0.153 -0.9410243 0.026712
-0.15449999 -0.9410243 0.025617
-0.15599999 -0.9410243 0.024375999
-0.1575 -0.9410243 0.024011001
-0.15900001 -0.9410243 0.022259001
-0.16049999 -0.9410243 0.020068999
-0.162 -0.9410243 0.018463001
-0.1635 -0.9410243 0.016638
-0.16499999 -0.9410243 0.013718
0.68850005 -0.93166089 0.212716
0.59999996 -0.93166089 0.211329
0.59850001 -0.93166089 0.199065
0.597 -0.93166089 0.18723899
0.59549999 -0.93166089 0.183589
0.52499998 -0.93166089 0.188115
0.52349997 -0.93166089 0.191108
0.52200001 -0.93166089 0.19505
0.5205 -0.93166089 0.19899201
0.51899999 -0.93166089 0.20264201
0.51749998 -0.93166089 0.20351799
0.29549998 -0.93166089 0.200233
0.294 -0.93166089 0.19855401
0.29249999 -0.93166089 0.19818901
0.29100001 -0.93166089 0.19796999
0.2895 -0.93166089 0.198627
0.28799999 -0.93166089 0.20103601
0.1725 -0.93166089 0.213884
0.171 -0.93166089 0.026639
0.16949999 -0.93166089 0.026493
0.168 -0.93166089 0.026639
0.1665 -0.93166089 0.026639
0.16499999 -0.93166089 0.02715
0.1575 -0.93166089 0.039340999
0.15599999 -0.93166089 0.041458003
0.15449999 -0.93166089 0.044232003
0.153 -0.93166089 0.046275999
0.1515 -0.93166089 0.049341999
0.14999999 -0.93166089 0.051385999
-0.1665 -0.93166089 0.028756
-0.168 -0.93166089 0.026930999
-0.16949999 -0.93166089 0.025178999
-0.171 -0.93166089 0.024375999
-0.1725 -0.93166089 0.021748001
-0.17399999 -0.93166089 0.017514
-0.17550001 -0.93166089 0.015250999
-0.177 -0.93166089 0.01328
-0.1785 -0.93166089 0.010652
-0.20999999 -0.93166089 0.012258001
-0.2115 -0.93166089 0.014229
-0.213 -0.93166089 0.010579
-0.2175 -0.93166089 0.011382001
-0.219 -0.93166089 0.01547
-0.22050001 -0.93166089 0.018681999
-0.222 -0.93166089 0.019485001
-0.2235 -0.93166089 0.018755
-0.22500001 -0.93166089 0.016929999
-0.2265 -0.93166089 0.015396999
-0.228 -0.93166089 0.015907999
-0.2295 -0.93166089 0.015543
-0.23100001 -0.93166089 0.013645001
-0.2325 -0.93166089 0.011089999
0.68850005 -0.92229748 0.21373799
0.60150003 -0.92229748 0.206365
0.59999996 -0.92229748 0.19132701
0.59850001 -0.92229748 0.18446499
0.597 -0.92229748 0.181399
0.528 -0.92229748 0.18753099
0.52649999 -0.92229748 0.19067001
0.52499998 -0.92229748 0.19402801
0.52349997 -0.92229748 0.19796999
0.52200001 -0.92229748 0.201401
0.5205 -0.92229748 0.20315301
0.29699999 -0.92229748 0.199211
0.29549998 -0.92229748 0.19848101
0.294 -0.92229748 0.19826201
0.29249999 -0.92229748 0.19840799
0.29100001 -0.92229748 0.200014
0.1725 -0.92229748 0.214103
0.171 -0.92229748 0.026347
0.16949999 -0.92229748 0.026128002
0.168 -0.92229748 0.026273999
0.1665 -0.92229748 0.026639
0.1575 -0.92229748 0.039049
0.15599999 -0.92229748 0.041311998
0.15449999 -0.92229748 0.043575
0.153 -0.92229748 0.046422001
0.1515 -0.92229748 0.048174001
0.14999999 -0.92229748 0.050802
0.1485 -0.92229748 0.053429998
-0.1785 -0.92229748 0.030143
-0.17999999 -0.92229748 0.028609999
-0.1815 -0.92229748 0.02788
-0.183 -0.92229748 0.026858
-0.18449999 -0.92229748 0.025106
-0.186 -0.92229748 0.023280999
