# .PCD v0.7 - Point Cloud Data file format
VERSION 0.7
FIELDS x y z
SIZE 4 4 4
TYPE F F F
COUNT 1 1 1
WIDTH 1655
HEIGHT 1
VIEWPOINT 0 0 0 1 0 0 0
POINTS 1655
DATA ascii
1.926 1.446642 0.54529196
1.89 1.446642 0.64099497
1.1115 1.446642 0.61274397
1.107 1.446642 0.58252198
1.1025 1.446642 0.55470896
0.4725 1.446642 0.62829298
0.46799999 1.446642 0.218106
-1.467 1.446642 0.271761
-1.4715 1.446642 0.26278201
-1.476 1.446642 0.25467899
-1.4805 1.446642 0.24920401
-1.485 1.446642 0.24241501
-1.4894999 1.446642 0.23496899
-1.4940001 1.446642 0.227304
-1.4985 1.446642 0.222048
-1.503 1.446642 0.21504
-1.5075001 1.446642 0.206937
-1.512 1.446642 0.19642499
-1.5165 1.446642 0.18876
-1.521 1.446642 0.181095
-1.5255001 1.446642 0.17299201
-1.53 1.446642 0.16532701
-1.5345 1.446642 0.157443
-1.539 1.446642 0.14977801
-1.5434999 1.446642 0.142551
-1.5480001 1.446642 0.134229
-1.5525 1.446642 0.125907
-1.7955 1.446642 0.13335301
-1.8 1.446642 0.151749
-1.8045 1.446642 0.15371999
-1.809 1.446642 0.143865
-1.9710001 1.446642 0.109263
2.0655 1.4747323 0.62960696
1.9349999 1.4747323 0.62303698
1.9305 1.4747323 0.60113704
1.926 1.4747323 0.57595205
1.9214998 1.4747323 0.56040299
1.9170001 1.4747323 0.54397798
1.1025 1.4747323 0.60792601
1.098 1.4747323 0.57463801
0.4725 1.4747323 0.62873101
0.46799999 1.4747323 0.21832499
0.18449999 1.4747323 0.24372901
-1.467 1.4747323 0.27395099
-1.4715 1.4747323 0.26519102
-1.476 1.4747323 0.25686902
-1.4805 1.4747323 0.24920401
-1.485 1.4747323 0.24153902
-1.4894999 1.4747323 0.234312
-1.4940001 1.4747323 0.227523
-1.4985 1.4747323 0.22007699
-1.503 1.4747323 0.212631
-1.5075001 1.4747323 0.205623
-1.512 1.4747323 0.19795801
-1.5165 1.4747323 0.18985499
-1.521 1.4747323 0.18262799
-1.5255001 1.4747323 0.176277
-1.53 1.4747323 0.168612
-1.5345 1.4747323 0.159852
-1.539 1.4747323 0.15087301
-1.5434999 1.4747323 0.142551
-1.5480001 1.4747323 0.135543
-1.5525 1.4747323 0.12919201
-1.5569999 1.4747323 0.12262201
-1.7955 1.4747323 0.13620001
-1.8 1.4747323 0.147807
-1.8045 1.4747323 0.150216
-1.809 1.4747323 0.143646
2.0610001 1.5028226 0.63048303
1.926 1.5028226 0.61975199
1.9214998 1.5028226 0.60004199
1.9170001 1.5028226 0.58011305
1.9124999 1.5028226 0.56062198
1.9080001 1.5028226 0.547701
1.8765 1.5028226 0.64099497
1.0934999 1.5028226 0.599823
1.089 1.5028226 0.56697297
0.4725 1.5028226 0.632016
0.46799999 1.5028226 0.21744901
-1.467 1.5028226 0.27044699
-1.4715 1.5028226 0.26278201
-1.476 1.5028226 0.258183
-1.4805 1.5028226 0.250956
-1.485 1.5028226 0.24350999
-1.4894999 1.5028226 0.23540701
-1.4940001 1.5028226 0.22708499
-1.4985 1.5028226 0.22007699
-1.503 1.5028226 0.21328801
-1.5075001 1.5028226 0.20584199
-1.512 1.5028226 0.19554901
-1.5165 1.5028226 0.187446
-1.521 1.5028226 0.180438
-1.5255001 1.5028226 0.174087
-1.53 1.5028226 0.165984
-1.5345 1.5028226 0.157662
-1.539 1.5028226 0.148902
-1.5434999 1.5028226 0.139047
-1.5480001 1.5028226 0.131382
-1.5525 1.5028226 0.12568799
-1.8 1.5028226 0.145179
-1.8045 1.5028226 0.148026
-1.809 1.5028226 0.142551
-1.9665 1.5028226 0.105978
2.0610001 1.5309129 0.62960696
1.9124999 1.5309129 0.60420299
1.9080001 1.5309129 0.58011305
1.9035001 1.5309129 0.56106001
1.8989999 1.5309129 0.54638696
1.8674999 1.5309129 0.64121395
1.089 1.5309129 0.62500799
1.0845001 1.5309129 0.589311
1.0799999 1.5309129 0.55865097
0.4725 1.5309129 0.62982601
0.46799999 1.5309129 0.21722999
-1.467 1.5309129 0.27395099
-1.4715 1.5309129 0.26584801
-1.476 1.5309129 0.258183
-1.4805 1.5309129 0.25183198
-1.485 1.5309129 0.24219599
-1.4894999 1.5309129 0.23299801
-1.4940001 1.5309129 0.22423799
-1.4985 1.5309129 0.217668
-1.503 1.5309129 0.212412
-1.5075001 1.5309129 0.206499
-1.512 1.5309129 0.197301
-1.5165 1.5309129 0.191607
-1.521 1.5309129 0.18416101
-1.5255001 1.5309129 0.174963
-1.53 1.5309129 0.16488899
-1.5345 1.5309129 0.155472
-1.539 1.5309129 0.14693101
-1.5434999 1.5309129 0.13860901
-1.5480001 1.5309129 0.130944
-1.5525 1.5309129 0.123936
-1.7955 1.5309129 0.135324
-1.8 1.5309129 0.14649299
-1.8045 1.5309129 0.148026
-1.809 1.5309129 0.142113
-1.9619999 1.5309129 0.104226
2.052 1.559003 0.62851197
1.9035001 1.559003 0.60486001
1.8989999 1.559003 0.579018
1.8945001 1.559003 0.55974603
1.89 1.559003 0.54791999
1.0799999 1.559003 0.61734301
1.0755 1.559003 0.57639003
1.071 1.559003 0.554052
0.4725 1.559003 0.62719798
0.46799999 1.559003 0.216573
0.17549999 1.559003 0.24482399
0.171 1.559003 0.242634
-1.467 1.559003 0.27066597
-1.4715 1.559003 0.264972
-1.476 1.559003 0.25730699
-1.4805 1.559003 0.24789001
-1.485 1.559003 0.24219599
-1.4894999 1.559003 0.237597
-1.4940001 1.559003 0.231684
-1.4985 1.559003 0.221829
-1.503 1.559003 0.21328801
-1.5075001 1.559003 0.20606101
-1.512 1.559003 0.19927199
-1.5165 1.559003 0.191826
-1.521 1.559003 0.18197101
-1.5255001 1.559003 0.170802
-1.53 1.559003 0.16335601
-1.5345 1.559003 0.156348
-1.539 1.559003 0.14977801
-1.5434999 1.559003 0.142113
-1.5480001 1.559003 0.13444801
-1.5525 1.559003 0.12765899
-1.7955 1.559003 0.13839
-1.8 1.559003 0.147807
-1.8045 1.559003 0.150216
-1.809 1.559003 0.144741
-1.9575001 1.559003 0.104226
2.0475001 1.5870932 0.62719798
1.8945001 1.5870932 0.60573602
1.89 1.5870932 0.58077002
1.8855 1.5870932 0.56106001
1.881 1.5870932 0.55251902
1.854 1.5870932 0.64077598
1.071 1.5870932 0.60573602
1.0664999 1.5870932 0.57113397
1.062 1.5870932 0.55098605
0.4725 1.5870932 0.63070202
0.46799999 1.5870932 0.21701099
-1.4625 1.5870932 0.28030199
-1.467 1.5870932 0.27417001
-1.4715 1.5870932 0.26562899
-1.476 1.5870932 0.256212
-1.4805 1.5870932 0.24701399
-1.485 1.5870932 0.24066299
-1.4894999 1.5870932 0.23518799
-1.4940001 1.5870932 0.22949399
-1.4985 1.5870932 0.223581
-1.503 1.5870932 0.215478
-1.5075001 1.5870932 0.207375
-1.512 1.5870932 0.19795801
-1.5165 1.5870932 0.188979
-1.521 1.5870932 0.179562
-1.5255001 1.5870932 0.169926
-1.53 1.5870932 0.164451
-1.5345 1.5870932 0.15810001
-1.539 1.5870932 0.150435
-1.5434999 1.5870932 0.14167501
-1.5480001 1.5870932 0.133791
-1.5525 1.5870932 0.127002
-1.8 1.5870932 0.14977801
-1.8045 1.5870932 0.151311
-1.809 1.5870932 0.14452201
-1.9575001 1.5870932 0.102912
2.043 1.6151835 0.62851197
1.8855 1.6151835 0.60420299
1.881 1.6151835 0.58186501
1.8765 1.6151835 0.55843198
1.872 1.6151835 0.55010998
1.062 1.6151835 0.59829003
1.0575 1.6151835 0.56741101
0.4725 1.6151835 0.62829298
0.46799999 1.6151835 0.21701099
-1.4715 1.6151835 0.25905901
-1.476 1.6151835 0.25380298
-1.4805 1.6151835 0.248109
-1.485 1.6151835 0.24416699
-1.4894999 1.6151835 0.23912999
-1.4940001 1.6151835 0.23255999
-1.4985 1.6151835 0.22423799
-1.503 1.6151835 0.212631
-1.5075001 1.6151835 0.20168099
-1.512 1.6151835 0.19379701
-1.5165 1.6151835 0.18678899
-1.521 1.6151835 0.18021901
-1.5255001 1.6151835 0.17364901
-1.53 1.6151835 0.16423199
-1.5345 1.6151835 0.15656699
-1.539 1.6151835 0.15087301
-1.5434999 1.6151835 0.14452201
-1.5480001 1.6151835 0.135543
-1.5525 1.6151835 0.126564
-1.7955 1.6151835 0.13400999
-1.8 1.6151835 0.149997
-1.8045 1.6151835 0.15240599
-1.809 1.6151835 0.14649299
-1.9529999 1.6151835 0.102474
2.043 1.6432737 0.62741703
1.8765 1.6432737 0.60245103
1.872 1.6432737 0.57967496
1.8674999 1.6432737 0.560184
1.0575 1.6432737 0.61997098
1.0530001 1.6432737 0.58690196
1.0484999 1.6432737 0.562374
0.4725 1.6432737 0.63048303
0.46799999 1.6432737 0.216135
-1.4625 1.6432737 0.277017
-1.467 1.6432737 0.272856
-1.4715 1.6432737 0.26628599
-1.476 1.6432737 0.25883999
-1.4805 1.6432737 0.25161299
-1.485 1.6432737 0.24350999
-1.4894999 1.6432737 0.23475
-1.4940001 1.6432737 0.22577101
-1.4985 1.6432737 0.216573
-1.503 1.6432737 0.20912701
-1.5075001 1.6432737 0.20343299
-1.512 1.6432737 0.198615
-1.5165 1.6432737 0.189417
-1.521 1.6432737 0.18021901
-1.5255001 1.6432737 0.17189701
-1.53 1.6432737 0.16620299
-1.5345 1.6432737 0.160071
-1.539 1.6432737 0.153282
-1.5434999 1.6432737 0.146274
-1.5480001 1.6432737 0.13729501
-1.5525 1.6432737 0.12875399
-1.5569999 1.6432737 0.12087001
-1.8 1.6432737 0.15065399
-1.8045 1.6432737 0.15262499
-1.809 1.6432737 0.143208
1.8674999 1.6713639 0.60420299
1.863 1.6713639 0.57573301
1.8585 1.6713639 0.55843198
1.0484999 1.6713639 0.61296296
1.044 1.6713639 0.582084
1.0395 1.6713639 0.54857701
0.4725 1.6713639 0.62895
0.46799999 1.6713639 0.21591599
0.189 1.6713639 0.26146799
0.18449999 1.6713639 0.23255999
-1.4715 1.6713639 0.26584801
-1.476 1.6713639 0.25752601
-1.4805 1.6713639 0.24898499
-1.485 1.6713639 0.24416699
-1.4894999 1.6713639 0.23781599
-1.4940001 1.6713639 0.22971299
-1.4985 1.6713639 0.22139099
-1.503 1.6713639 0.213507
-1.5075001 1.6713639 0.205623
-1.512 1.6713639 0.19664401
-1.5165 1.6713639 0.18832201
-1.521 1.6713639 0.179562
-1.5255001 1.6713639 0.17036399
-1.53 1.6713639 0.163794
-1.5345 1.6713639 0.157662
-1.539 1.6713639 0.151311
-1.5434999 1.6713639 0.143646
-1.5480001 1.6713639 0.134229
-1.5525 1.6713639 0.12503101
-1.8 1.6713639 0.14539799
-1.8045 1.6713639 0.14824499
-1.809 1.6713639 0.14496
-1.944 1.6713639 0.102036
2.0339999 1.6994541 0.62807399
1.8585 1.6994541 0.60135603
1.854 1.6994541 0.573762
1.8495001 1.6994541 0.55996501
1.0395 1.6994541 0.605955
1.035 1.6994541 0.57288599
0.4725 1.6994541 0.62895
0.46799999 1.6994541 0.21438301
0.19350001 1.6994541 0.26431498
0.189 1.6994541 0.24088201
-1.4715 1.6994541 0.26562899
-1.476 1.6994541 0.258183
-1.4805 1.6994541 0.25292701
-1.485 1.6994541 0.24701399
-1.4894999 1.6994541 0.23781599
-1.4940001 1.6994541 0.227523
-1.4985 1.6994541 0.219639
-1.503 1.6994541 0.212631
-1.5075001 1.6994541 0.20628001
-1.512 1.6994541 0.19971001
-1.5165 1.6994541 0.18876
-1.521 1.6994541 0.17846699
-1.5255001 1.6994541 0.170145
-1.53 1.6994541 0.16488899
-1.5345 1.6994541 0.159633
-1.539 1.6994541 0.15284401
-1.5434999 1.6994541 0.14298899
-1.5480001 1.6994541 0.135324
-1.5525 1.6994541 0.12875399
-1.8 1.6994541 0.14452201
-1.8045 1.6994541 0.147588
-1.809 1.6994541 0.14408399
-1.944 1.6994541 0.100065
2.0339999 1.7275444 0.62807399
1.8495001 1.7275444 0.60332698
1.845 1.7275444 0.57507598
1.8405 1.7275444 0.56062198
1.035 1.7275444 0.62391299
1.0305001 1.7275444 0.59478599
1.026 1.7275444 0.56500202
0.4725 1.7275444 0.62741703
0.46799999 1.7275444 0.21591599
-1.467 1.7275444 0.271761
-1.4715 1.7275444 0.263877
-1.476 1.7275444 0.25577399
-1.4805 1.7275444 0.24920401
-1.485 1.7275444 0.24219599
-1.4894999 1.7275444 0.236283
-1.4940001 1.7275444 0.22993201
-1.4985 1.7275444 0.217887
-1.503 1.7275444 0.207375
-1.5075001 1.7275444 0.19795801
-1.512 1.7275444 0.194673
-1.5165 1.7275444 0.187884
-1.521 1.7275444 0.179343
-1.5255001 1.7275444 0.169926
-1.53 1.7275444 0.16423199
-1.5345 1.7275444 0.157662
-1.539 1.7275444 0.149997
-1.5434999 1.7275444 0.143427
-1.5480001 1.7275444 0.13598099
-1.5525 1.7275444 0.128535
-1.5569999 1.7275444 0.121089
-1.8 1.7275444 0.14408399
-1.8045 1.7275444 0.146274
-1.809 1.7275444 0.14298899
-1.9395 1.7275444 0.098969996
2.0339999 1.7556347 0.62719798
1.8405 1.7556347 0.595662
1.836 1.7556347 0.57135296
1.026 1.7556347 0.62128496
1.0215 1.7556347 0.59062499
1.017 1.7556347 0.55514705
0.4725 1.7556347 0.62741703
0.46799999 1.7556347 0.21701099
-1.467 1.7556347 0.274389
-1.4715 1.7556347 0.264972
-1.476 1.7556347 0.25533599
-1.4805 1.7556347 0.24745199
-1.485 1.7556347 0.240444
-1.4894999 1.7556347 0.23365499
-1.4940001 1.7556347 0.226428
-1.4985 1.7556347 0.21854401
-1.503 1.7556347 0.21219301
-1.5075001 1.7556347 0.205404
-1.512 1.7556347 0.195768
-1.5165 1.7556347 0.187446
-1.521 1.7556347 0.179124
-1.5255001 1.7556347 0.17036399
-1.53 1.7556347 0.16335601
-1.5345 1.7556347 0.157224
-1.539 1.7556347 0.15153
-1.5434999 1.7556347 0.143646
-1.5480001 1.7556347 0.134886
-1.5525 1.7556347 0.127221
-1.5569999 1.7556347 0.12152701
-1.8 1.7556347 0.143427
-1.8045 1.7556347 0.146055
-1.809 1.7556347 0.143865
1.8315001 1.7837249 0.59697604
1.827 1.7837249 0.573762
1.8225 1.7837249 0.56040299
1.017 1.7837249 0.61099201
1.0125 1.7837249 0.57748502
1.008 1.7837249 0.55120504
0.4725 1.7837249 0.63179702
0.46799999 1.7837249 0.21504
-1.467 1.7837249 0.271323
-1.4715 1.7837249 0.264534
-1.476 1.7837249 0.25730699
-1.4805 1.7837249 0.25007999
-1.485 1.7837249 0.241758
-1.4894999 1.7837249 0.234312
-1.4940001 1.7837249 0.227961
-1.4985 1.7837249 0.22007699
-1.503 1.7837249 0.211317
-1.5075001 1.7837249 0.202995
-1.512 1.7837249 0.194673
-1.5165 1.7837249 0.187884
-1.521 1.7837249 0.180657
-1.5255001 1.7837249 0.172116
-1.53 1.7837249 0.16467001
-1.5345 1.7837249 0.15700501
-1.539 1.7837249 0.14977801
-1.5434999 1.7837249 0.14277001
-1.5480001 1.7837249 0.13576201
-1.5525 1.7837249 0.128535
-1.5569999 1.7837249 0.119556
-1.8 1.7837249 0.14277001
-1.8045 1.7837249 0.14539799
-1.809 1.7837249 0.143208
-1.9305 1.7837249 0.100722
2.0295 1.8118151 0.62654102
1.8225 1.8118151 0.59807098
1.8180001 1.8118151 0.57529497
1.8134999 1.8118151 0.561279
1.008 1.8118151 0.605079
1.0035 1.8118151 0.57003897
0.99900001 1.8118151 0.54682505
0.4725 1.8118151 0.62851197
0.46799999 1.8118151 0.214821
-0.98099995 1.8118151 0.259278
-1.467 1.8118151 0.272199
-1.4715 1.8118151 0.26300099
-1.476 1.8118151 0.25336501
-1.4805 1.8118151 0.24789001
-1.485 1.8118151 0.24088201
-1.4894999 1.8118151 0.23365499
-1.4940001 1.8118151 0.226428
-1.4985 1.8118151 0.22117199
-1.503 1.8118151 0.212631
-1.5075001 1.8118151 0.20365199
-1.512 1.8118151 0.195768
-1.5165 1.8118151 0.18832201
-1.521 1.8118151 0.181095
-1.5255001 1.8118151 0.174087
-1.53 1.8118151 0.16642201
-1.5345 1.8118151 0.158319
-1.539 1.8118151 0.150216
-1.5434999 1.8118151 0.14167501
-1.5480001 1.8118151 0.133572
-1.5525 1.8118151 0.12634499
-1.5569999 1.8118151 0.119556
-1.8 1.8118151 0.142113
-1.8045 1.8118151 0.14539799
-1.809 1.8118151 0.141018
2.0295 1.8399053 0.627855
1.8134999 1.8399053 0.59412903
1.809 1.8399053 0.56938201
1.8045 1.8399053 0.55930805
0.99900001 1.8399053 0.59960401
0.99449998 1.8399053 0.56456399
0.99000001 1.8399053 0.54222596
0.4725 1.8399053 0.630045
0.46799999 1.8399053 0.21504
-1.467 1.8399053 0.26781899
-1.4715 1.8399053 0.25905901
-1.476 1.8399053 0.25446001
-1.4805 1.8399053 0.25007999
-1.485 1.8399053 0.24350999
-1.4894999 1.8399053 0.23496899
-1.4940001 1.8399053 0.22555199
-1.4985 1.8399053 0.220296
-1.503 1.8399053 0.21328801
-1.5075001 1.8399053 0.205623
-1.512 1.8399053 0.196863
-1.5165 1.8399053 0.18963601
-1.521 1.8399053 0.181095
-1.5255001 1.8399053 0.17124
-1.53 1.8399053 0.16357501
-1.5345 1.8399053 0.156129
-1.539 1.8399053 0.14934
-1.5434999 1.8399053 0.14167501
-1.5480001 1.8399053 0.136419
-1.5525 1.8399053 0.13028701
-1.5569999 1.8399053 0.12087001
-1.8 1.8399053 0.142551
-1.8045 1.8399053 0.14583601
-1.809 1.8399053 0.14145601
-1.9214998 1.8399053 0.099845998
2.0295 1.8679955 0.62654102
1.8045 1.8679955 0.59478599
1.8 1.8679955 0.56981999
1.7955 1.8679955 0.55470896
1.791 1.8679955 0.570696
1.7865 1.8679955 0.59588099
0.99449998 1.8679955 0.62150401
0.99000001 1.8679955 0.589311
0.98550004 1.8679955 0.56193596
0.4725 1.8679955 0.63026404
0.46799999 1.8679955 0.21460201
-1.467 1.8679955 0.271323
-1.4715 1.8679955 0.26322001
-1.476 1.8679955 0.25643101
-1.4805 1.8679955 0.25227001
-1.485 1.8679955 0.24241501
-1.4894999 1.8679955 0.23365499
-1.4940001 1.8679955 0.22664699
-1.4985 1.8679955 0.218106
-1.503 1.8679955 0.211317
-1.5075001 1.8679955 0.205404
-1.512 1.8679955 0.19927199
-1.5165 1.8679955 0.19226399
-1.521 1.8679955 0.186351
-1.5255001 1.8679955 0.17890501
-1.53 1.8679955 0.16686
-1.5345 1.8679955 0.15700501
-1.539 1.8679955 0.14977801
-1.5434999 1.8679955 0.139266
-1.5480001 1.8679955 0.13181999
-1.5525 1.8679955 0.126783
-1.8 1.8679955 0.137733
-1.8045 1.8679955 0.14233199
-1.809 1.8679955 0.14058
-1.9170001 1.8679955 0.100722
1.7955 1.8960857 0.58558798
1.791 1.8960857 0.56631601
0.98550004 1.8960857 0.61186796
0.98099995 1.8960857 0.58427405
0.97649997 1.8960857 0.55536604
0.4725 1.8960857 0.62676001
0.46799999 1.8960857 0.214821
-1.467 1.8960857 0.272856
-1.4715 1.8960857 0.26475301
-1.476 1.8960857 0.25643101
-1.4805 1.8960857 0.249642
-1.485 1.8960857 0.24197699
-1.4894999 1.8960857 0.23453099
-1.4940001 1.8960857 0.227523
-1.4985 1.8960857 0.22007699
-1.503 1.8960857 0.212412
-1.5075001 1.8960857 0.20496601
-1.512 1.8960857 0.19751999
-1.5165 1.8960857 0.18985499
-1.521 1.8960857 0.181095
-1.5255001 1.8960857 0.17145899
-1.53 1.8960857 0.165108
-1.5345 1.8960857 0.15788099
-1.539 1.8960857 0.150216
-1.5434999 1.8960857 0.143208
-1.5480001 1.8960857 0.135105
-1.5525 1.8960857 0.127002
-1.8 1.8960857 0.13400999
-1.8045 1.8960857 0.14233199
-1.809 1.8960857 0.140799
-1.9124999 1.8960857 0.099845998
2.0250001 1.9241761 0.624789
1.791 1.9241761 0.61077303
1.7865 1.9241761 0.58361697
1.7819999 1.9241761 0.56456399
0.97649997 1.9241761 0.60748798
0.972 1.9241761 0.573762
0.96749997 1.9241761 0.549891
0.4725 1.9241761 0.62719798
0.46799999 1.9241761 0.21504
-1.4625 1.9241761 0.28183502
-1.467 1.9241761 0.271323
-1.4715 1.9241761 0.26168701
-1.476 1.9241761 0.25314599
-1.4805 1.9241761 0.24701399
-1.485 1.9241761 0.239787
-1.4894999 1.9241761 0.23299801
-1.4940001 1.9241761 0.22708499
-1.4985 1.9241761 0.218982
-1.503 1.9241761 0.211317
-1.5075001 1.9241761 0.20343299
-1.512 1.9241761 0.19379701
-1.5165 1.9241761 0.18613201
-1.521 1.9241761 0.179343
-1.5255001 1.9241761 0.172116
-1.53 1.9241761 0.164451
-1.5345 1.9241761 0.15700501
-1.539 1.9241761 0.150216
-1.5434999 1.9241761 0.142551
-1.5480001 1.9241761 0.133572
-1.5525 1.9241761 0.124812
-1.8 1.9241761 0.139485
-1.8045 1.9241761 0.143208
-1.809 1.9241761 0.13992299
-1.9080001 1.9241761 0.097874999
-1.9124999 1.9241761 0.086705998
-1.9170001 1.9241761 0.064805999
-1.9214998 1.9241761 0.042905997
2.0250001 1.9522662 0.62632203
1.7819999 1.9522662 0.61164898
1.7775 1.9522662 0.58186501
1.773 1.9522662 0.56456399
0.96749997 1.9522662 0.598728
0.963 1.9522662 0.56500202
0.4725 1.9522662 0.62697899
0.46799999 1.9522662 0.214821
-1.467 1.9522662 0.27241799
-1.4715 1.9522662 0.26628599
-1.476 1.9522662 0.25905901
-1.4805 1.9522662 0.25161299
-1.485 1.9522662 0.24066299
-1.4894999 1.9522662 0.23080799
-1.4940001 1.9522662 0.22533299
-1.4985 1.9522662 0.219201
-1.503 1.9522662 0.211317
-1.5075001 1.9522662 0.20343299
-1.512 1.9522662 0.195768
-1.5165 1.9522662 0.18832201
-1.521 1.9522662 0.18087599
-1.5255001 1.9522662 0.17299201
-1.53 1.9522662 0.16488899
-1.5345 1.9522662 0.157224
-1.539 1.9522662 0.150216
-1.5434999 1.9522662 0.14277001
-1.5480001 1.9522662 0.134229
-1.5525 1.9522662 0.12612601
-1.5569999 1.9522662 0.11846101
-1.8 1.9522662 0.13817099
-1.8045 1.9522662 0.14014199
-1.809 1.9522662 0.139704
2.0250001 1.9803565 0.62522697
1.7775 1.9803565 0.62194204
1.773 1.9803565 0.60486001
1.7685 1.9803565 0.57945597
1.7640001 1.9803565 0.56587797
1.737 1.9803565 0.636177
0.972 1.9803565 0.63332999
0.96749997 1.9803565 0.63135898
0.963 1.9803565 0.61800003
0.95850003 1.9803565 0.58909202
0.95400006 1.9803565 0.55930805
0.94949996 1.9803565 0.539379
0.92250001 1.9803565 0.63705301
0.91799998 1.9803565 0.637272
0.4725 1.9803565 0.62719798
0.46799999 1.9803565 0.213945
-1.4535 1.9803565 0.29607001
-1.4579999 1.9803565 0.288405
-1.4625 1.9803565 0.28052101
-1.467 1.9803565 0.27197999
-1.4715 1.9803565 0.26475301
-1.476 1.9803565 0.25752601
-1.4805 1.9803565 0.24898499
-1.485 1.9803565 0.24153902
-1.4894999 1.9803565 0.234312
-1.4940001 1.9803565 0.227523
-1.4985 1.9803565 0.219639
-1.503 1.9803565 0.211098
-1.5075001 1.9803565 0.202995
-1.512 1.9803565 0.19554901
-1.5165 1.9803565 0.188979
-1.521 1.9803565 0.18131401
-1.5255001 1.9803565 0.17189701
-1.53 1.9803565 0.164013
-1.5345 1.9803565 0.15678599
-1.539 1.9803565 0.15087301
-1.5434999 1.9803565 0.143427
-1.5480001 1.9803565 0.135543
-1.5525 1.9803565 0.12787801
-1.5569999 1.9803565 0.119775
-1.8 1.9803565 0.13444801
-1.8045 1.9803565 0.13992299
-1.809 1.9803565 0.13860901
-1.8945001 1.9803565 0.10116
-1.8989999 1.9803565 0.098312996
2.0250001 2.0084467 0.62719798
1.8 2.0084467 0.624789
1.7955 2.0084467 0.621723
1.791 2.0084467 0.61843801
1.71 2.0084467 0.632016
1.7055 2.0084467 0.63289201
0.99449998 2.0084467 0.62916899
0.99000001 2.0084467 0.62873101
0.89099997 2.0084467 0.63289201
0.8865 2.0084467 0.63464403
0.4725 2.0084467 0.62544596
0.46799999 2.0084467 0.213726
-1.476 2.0084467 0.258183
-1.4805 2.0084467 0.25227001
-1.485 2.0084467 0.241101
-1.4894999 2.0084467 0.23234101
-1.4940001 2.0084467 0.227961
-1.4985 2.0084467 0.22161001
-1.503 2.0084467 0.21175499
-1.5075001 2.0084467 0.202557
-1.512 2.0084467 0.197301
-1.5165 2.0084467 0.190731
-1.521 2.0084467 0.18219
-1.5255001 2.0084467 0.17189701
-1.53 2.0084467 0.16335601
-1.5345 2.0084467 0.155472
-1.539 2.0084467 0.149121
-1.5434999 2.0084467 0.14036101
-1.5480001 2.0084467 0.133791
-1.5525 2.0084467 0.128316
-1.5569999 2.0084467 0.12087001
-1.8045 2.0084467 0.136638
-1.809 2.0084467 0.137952
2.0250001 2.0365369 0.62632203
2.0204999 2.0365369 0.62916899
1.8405 2.0365369 0.62325603
1.836 2.0365369 0.61909503
1.665 2.0365369 0.62916899
1.6604999 2.0365369 0.633111
1.044 2.0365369 0.62895
1.0395 2.0365369 0.62610304
0.83699995 2.0365369 0.63289201
0.83249998 2.0365369 0.63245398
0.47700003 2.0365369 0.62522697
0.4725 2.0365369 0.62632203
-1.4535 2.0365369 0.296289
-1.4579999 2.0365369 0.28818601
-1.4625 2.0365369 0.28052101
-1.467 2.0365369 0.274389
-1.4715 2.0365369 0.26519102
-1.476 2.0365369 0.255555
-1.4805 2.0365369 0.247233
-1.485 2.0365369 0.23869199
-1.4894999 2.0365369 0.231465
-1.4940001 2.0365369 0.226209
-1.4985 2.0365369 0.219639
-1.503 2.0365369 0.21153601
-1.5075001 2.0365369 0.20343299
-1.512 2.0365369 0.19642499
-1.5165 2.0365369 0.18963601
-1.521 2.0365369 0.181095
-1.5255001 2.0365369 0.171021
-1.53 2.0365369 0.16488899
-1.5345 2.0365369 0.157443
-1.539 2.0365369 0.149121
-1.5434999 2.0365369 0.14167501
-1.5480001 2.0365369 0.13400999
-1.5525 2.0365369 0.12634499
-1.5569999 2.0365369 0.117147
-1.8045 2.0365369 0.136419
-1.8855 2.0365369 0.098094001
-1.89 2.0365369 0.095684998
2.016 2.0646272 0.62457001
2.0115001 2.0646272 0.62413198
2.007 2.0646272 0.62435097
2.0024998 2.0646272 0.623694
1.9080001 2.0646272 0.62851197
1.9035001 2.0646272 0.62654102
1.4175 2.0646272 0.62895
1.413 2.0646272 0.62938797
1.2915 2.0646272 0.630045
1.2869999 2.0646272 0.63026404
0.58500004 2.0646272 0.62522697
0.58050001 2.0646272 0.62676001
0.49950001 2.0646272 0.62435097
0.495 2.0646272 0.62216103
0.49049997 2.0646272 0.62347502
0.486 2.0646272 0.57419997
0.4815 2.0646272 0.214821
0.47700003 2.0646272 0.21701099
-1.4445 2.0646272 0.30899101
-1.449 2.0646272 0.298917
-1.4535 2.0646272 0.28906199
-1.5255001 2.0646272 0.172773
-1.53 2.0646272 0.16357501
-1.5345 2.0646272 0.15481499
-1.539 2.0646272 0.14671201
-1.5434999 2.0646272 0.13992299
-1.5480001 2.0646272 0.131382
-1.5525 2.0646272 0.12262201
-1.5569999 2.0646272 0.114519
-1.8 2.0646272 0.131163
-1.8045 2.0646272 0.13444801
0.4815 2.0927174 0.212412
0.47700003 2.0927174 0.212631
0.171 2.0927174 0.245481
0.1665 2.0927174 0.23475
-1.4175 2.0927174 0.30373499
-1.4220001 2.0927174 0.30417299
-1.4985 2.0927174 0.20606101
-1.503 2.0927174 0.198396
-1.5075001 2.0927174 0.19116899
-1.512 2.0927174 0.18306601
-1.5165 2.0927174 0.174963
-1.521 2.0927174 0.167079
-1.5255001 2.0927174 0.160947
-1.53 2.0927174 0.154377
-1.5345 2.0927174 0.14693101
-1.539 2.0927174 0.13860901
-1.5434999 2.0927174 0.13203901
-1.5480001 2.0927174 0.125469
-1.5525 2.0927174 0.116928
-1.5569999 2.0927174 0.105321
-1.8045 2.0927174 0.13028701
-1.8674999 2.0927174 0.100284
0.4725 2.1208076 0.216792
0.46799999 2.1208076 0.214821
0.17549999 2.1208076 0.243948
0.171 2.1208076 0.25905901
0.1665 2.1208076 0.241758
-1.0125 2.1208076 0.24329099
-1.017 2.1208076 0.24701399
-1.0215 2.1208076 0.25051799
-1.5255001 2.1208076 0.147369
-1.863 2.1208076 0.099408001
0.46349999 2.1488979 0.201462
0.45899999 2.1488979 0.20168099
0.45450002 2.1488979 0.202557
0.37799999 2.1488979 0.192045
0.37350002 2.1488979 0.191607
0.36899999 2.1488979 0.19248301
0.36449999 2.1488979 0.19314
0.36000001 2.1488979 0.19401599
0.3195 2.1488979 0.19532999
0.28349999 2.1488979 0.19314
0.27900001 2.1488979 0.19335899
0.18000001 2.1488979 0.24416699
0.17549999 2.1488979 0.250956
0.171 2.1488979 0.230151
-0.22499999 2.1488979 0.239787
-1.0035 2.1488979 0.21701099
-1.008 2.1488979 0.217887
-1.0125 2.1488979 0.218106
-1.017 2.1488979 0.21876301
-1.0215 2.1488979 0.219201
-1.026 2.1488979 0.220296
-1.0305001 2.1488979 0.220953
-1.035 2.1488979 0.22139099
-1.5255001 2.1488979 0.11605199
-1.53 2.1488979 0.10948201
-1.5345 2.1488979 0.10335
-1.8585 2.1488979 0.096561
-1.863 2.1488979 0.095684998
0.45899999 2.1769881 0.152187
0.45450002 2.1769881 0.151311
0.42300001 2.1769881 0.147588
0.41849998 2.1769881 0.14868301
0.243 2.1769881 0.156129
0.23850001 2.1769881 0.15109201
0.234 2.1769881 0.150435
0.2295 2.1769881 0.15087301
0.22499999 2.1769881 0.151311
0.22050001 2.1769881 0.151968
0.21599999 2.1769881 0.153282
0.2115 2.1769881 0.15503401
0.15300001 2.1769881 0.18569399
0.098999999 2.1769881 0.179562
-0.067499995 2.1769881 0.181095
-0.1035 2.1769881 0.17583901
-0.171 2.1769881 0.17715301
-0.17549999 2.1769881 0.178029
-0.18000001 2.1769881 0.177591
-0.18449999 2.1769881 0.178029
-0.189 2.1769881 0.18153299
-0.207 2.1769881 0.209346
-0.2115 2.1769881 0.21876301
-0.21599999 2.1769881 0.227961
-0.22050001 2.1769881 0.233217
-0.88200003 2.1769881 0.183285
-1.503 2.1769881 0.109044
-1.5075001 2.1769881 0.104664
-1.8495001 2.1769881 0.094808996
1.8180001 2.2050781 0.184818
1.8134999 2.2050781 0.180438
1.809 2.2050781 0.176277
0.47700003 2.2050781 0.112986
0.4725 2.2050781 0.114519
0.46799999 2.2050781 0.1143
0.46349999 2.2050781 0.114519
0.45899999 2.2050781 0.113862
0.45450002 2.2050781 0.112986
0.44999999 2.2050781 0.112548
0.44549999 2.2050781 0.108606
0.44100001 2.2050781 0.107949
0.43650001 2.2050781 0.108387
0.43199998 2.2050781 0.10773
0.42750001 2.2050781 0.107511
0.42300001 2.2050781 0.108825
0.243 2.2050781 0.106416
0.23850001 2.2050781 0.112329
0.234 2.2050781 0.10948201
0.2295 2.2050781 0.111015
0.22499999 2.2050781 0.11211
0.22050001 2.2050781 0.111453
0.21599999 2.2050781 0.109701
0.2115 2.2050781 0.108606
0.207 2.2050781 0.107292
0.2025 2.2050781 0.107949
0.198 2.2050781 0.109263
0.19350001 2.2050781 0.110577
0.189 2.2050781 0.111891
0.18449999 2.2050781 0.11649
0.18000001 2.2050781 0.178248
-0.15300001 2.2050781 0.12984899
-0.1575 2.2050781 0.13335301
-0.162 2.2050781 0.13576201
-0.1665 2.2050781 0.139704
-0.171 2.2050781 0.14539799
-0.17549999 2.2050781 0.151968
-0.18000001 2.2050781 0.159852
-0.18449999 2.2050781 0.16883101
-0.189 2.2050781 0.179124
-0.19350001 2.2050781 0.18919799
-0.198 2.2050781 0.194892
-0.2025 2.2050781 0.198615
-1.476 2.2050781 0.090866998
0.99000001 2.2331686 0.12525
0.98550004 2.2331686 0.123498
0.98099995 2.2331686 0.120651
0.97649997 2.2331686 0.11802299
0.972 2.2331686 0.118242
0.96749997 2.2331686 0.115176
0.4815 2.2331686 0.12327901
0.47700003 2.2331686 0.114738
0.4725 2.2331686 0.089990996
0.46799999 2.2331686 0.078602999
0.2295 2.2331686 0.072908998
0.22499999 2.2331686 0.072908998
0.22050001 2.2331686 0.071814001
0.21599999 2.2331686 0.070718996
0.2115 2.2331686 0.070718996
0.207 2.2331686 0.071814001
0.2025 2.2331686 0.070938006
0.198 2.2331686 0.070718996
0.19350001 2.2331686 0.070718996
0.189 2.2331686 0.073347002
0.072000004 2.2331686 0.089990996
0.0405 2.2331686 0.088895999
0.036000002 2.2331686 0.089114994
0.031500001 2.2331686 0.089334004
0.026999999 2.2331686 0.089772001
0.022500001 2.2331686 0.089334004
0.018000001 2.2331686 0.088677004
0.013499999 2.2331686 0.088019997
-0.085500002 2.2331686 0.084516004
-0.090000004 2.2331686 0.084516004
-0.094499998 2.2331686 0.085173003
-0.098999999 2.2331686 0.085611001
-0.1035 2.2331686 0.086049005
-0.108 2.2331686 0.087362997
-0.1125 2.2331686 0.087582007
-0.117 2.2331686 0.088019997
-0.1215 2.2331686 0.088677004
-0.126 2.2331686 0.088238999
-0.1305 2.2331686 0.087582007
-0.13499999 2.2331686 0.089552999
-0.13950001 2.2331686 0.095466003
-0.47700003 2.2331686 0.090429001
-0.76950002 2.2331686 0.085391998
-0.77400005 2.2331686 0.087144002
-0.77849996 2.2331686 0.089114994
-0.78299999 2.2331686 0.088238999
-0.78749996 2.2331686 0.087362997
-0.792 2.2331686 0.087801002
-0.92699999 2.2331686 0.084953994
-0.93150002 2.2331686 0.085173003
-0.93599999 2.2331686 0.085173003
-0.94050002 2.2331686 0.084953994
-0.94499999 2.2331686 0.086268
-0.94949996 2.2331686 0.084516004
-0.95400006 2.2331686 0.083640002
-0.95850003 2.2331686 0.084297001
-0.963 2.2331686 0.084077999
-0.96749997 2.2331686 0.084516004
-0.972 2.2331686 0.084953994
-0.97649997 2.2331686 0.085173003
-0.98099995 2.2331686 0.085391998
-0.98550004 2.2331686 0.085611001
-0.99000001 2.2331686 0.085611001
-0.99449998 2.2331686 0.086268
-0.99900001 2.2331686 0.086268
-1.0035 2.2331686 0.086268
-1.008 2.2331686 0.086705998
-1.0125 2.2331686 0.086486995
-1.017 2.2331686 0.085611001
-1.0215 2.2331686 0.085611001
-1.026 2.2331686 0.086049005
-1.0305001 2.2331686 0.085611001
-1.035 2.2331686 0.088238999
-1.0395 2.2331686 0.087582007
-1.044 2.2331686 0.086925
-1.0484999 2.2331686 0.088677004
-1.0530001 2.2331686 0.089114994
-1.0575 2.2331686 0.088238999
-1.062 2.2331686 0.087362997
-1.0664999 2.2331686 0.087582007
-1.071 2.2331686 0.086925
-1.0755 2.2331686 0.085611001
-1.0799999 2.2331686 0.086049005
-1.0845001 2.2331686 0.085611001
-1.089 2.2331686 0.086049005
-1.0934999 2.2331686 0.085391998
-1.098 2.2331686 0.085829996
-1.1025 2.2331686 0.086268
-1.107 2.2331686 0.084297001
-1.1115 2.2331686 0.082325995
-1.1160001 2.2331686 0.083858997
-1.1205 2.2331686 0.085611001
-1.125 2.2331686 0.084077999
-1.1295 2.2331686 0.079916999
-1.1339999 2.2331686 0.079479001
-1.1385001 2.2331686 0.082545005
-1.143 2.2331686 0.084077999
-1.1475 2.2331686 0.083858997
-1.1520001 2.2331686 0.082983002
-1.1565 2.2331686 0.082325995
-1.161 2.2331686 0.081888005
-1.1654999 2.2331686 0.084077999
-1.1700001 2.2331686 0.082325995
-1.1745 2.2331686 0.080573998
-1.1789999 2.2331686 0.081012003
-1.1835001 2.2331686 0.083858997
-1.188 2.2331686 0.085173003
-1.1925 2.2331686 0.084516004
-1.197 2.2331686 0.083201997
-1.2014999 2.2331686 0.082545005
-1.206 2.2331686 0.080792993
-1.2105 2.2331686 0.083421007
-1.215 2.2331686 0.084516004
-1.2194999 2.2331686 0.083640002
-1.2240001 2.2331686 0.083201997
-1.2285 2.2331686 0.084077999
-1.2329999 2.2331686 0.084077999
-1.2375001 2.2331686 0.083201997
-1.242 2.2331686 0.082764
-1.2465 2.2331686 0.082325995
-1.251 2.2331686 0.083858997
-1.2555001 2.2331686 0.083421007
-1.26 2.2331686 0.079479001
-1.2644999 2.2331686 0.081668995
-1.2690001 2.2331686 0.081888005
-1.2735 2.2331686 0.080136001
-1.278 2.2331686 0.078822002
-1.2825 2.2331686 0.079040997
-1.2869999 2.2331686 0.081230998
-1.2915 2.2331686 0.08145
-1.296 2.2331686 0.081888005
-1.3005 2.2331686 0.081230998
-1.3049999 2.2331686 0.081888005
-1.3095 2.2331686 0.081012003
-1.314 2.2331686 0.08145
-1.3184999 2.2331686 0.082325995
-1.3230001 2.2331686 0.082983002
-1.3275 2.2331686 0.083201997
-1.332 2.2331686 0.08145
-1.3365 2.2331686 0.080355003
-1.341 2.2331686 0.082983002
-1.3455 2.2331686 0.08145
-1.35 2.2331686 0.081012003
-1.3545001 2.2331686 0.084516004
-1.359 2.2331686 0.084953994
-1.3635 2.2331686 0.083858997
-1.368 2.2331686 0.082764
-1.3724999 2.2331686 0.082107
-1.377 2.2331686 0.083201997
-1.3815 2.2331686 0.083421007
-1.386 2.2331686 0.082983002
-1.3904999 2.2331686 0.083201997
-1.395 2.2331686 0.083640002
-1.3995 2.2331686 0.084297001
-1.4039999 2.2331686 0.083421007
-1.4085001 2.2331686 0.082545005
-1.413 2.2331686 0.082325995
-1.4175 2.2331686 0.082764
-1.4220001 2.2331686 0.083201997
-1.4265 2.2331686 0.081888005
-1.431 2.2331686 0.081888005
-1.4355 2.2331686 0.08145
-1.4400001 2.2331686 0.080792993
1.8765 2.2612586 0.13860901
1.872 2.2612586 0.135105
1.8674999 2.2612586 0.133572
1.863 2.2612586 0.13181999
1.8585 2.2612586 0.130725
1.854 2.2612586 0.129411
1.8495001 2.2612586 0.128316
1.845 2.2612586 0.128535
1.8405 2.2612586 0.129411
1.836 2.2612586 0.12984899
1.8315001 2.2612586 0.12963
1.827 2.2612586 0.12963
1.8225 2.2612586 0.12919201
1.8180001 2.2612586 0.127221
1.8134999 2.2612586 0.126564
1.809 2.2612586 0.12787801
1.8045 2.2612586 0.128316
1.8 2.2612586 0.128097
1.7955 2.2612586 0.128535
1.791 2.2612586 0.128316
1.7865 2.2612586 0.12634499
1.7819999 2.2612586 0.128097
1.7775 2.2612586 0.130725
1.026 2.2612586 0.13598099
1.0215 2.2612586 0.13203901
1.017 2.2612586 0.13028701
1.0125 2.2612586 0.130068
1.008 2.2612586 0.128535
1.0035 2.2612586 0.127002
0.99900001 2.2612586 0.12612601
0.99449998 2.2612586 0.125469
0.99000001 2.2612586 0.12634499
0.98550004 2.2612586 0.126783
0.98099995 2.2612586 0.125907
0.97649997 2.2612586 0.12568799
0.972 2.2612586 0.12525
0.96749997 2.2612586 0.12503101
0.963 2.2612586 0.12503101
0.95850003 2.2612586 0.124593
0.95400006 2.2612586 0.124593
0.94949996 2.2612586 0.123498
0.94499999 2.2612586 0.124155
0.94050002 2.2612586 0.124812
0.93599999 2.2612586 0.126783
0.93150002 2.2612586 0.126564
0.92699999 2.2612586 0.12744001
0.92250001 2.2612586 0.128316
0.91799998 2.2612586 0.128097
0.4815 2.2612586 0.12262201
0.47700003 2.2612586 0.096341997
0.4725 2.2612586 0.070062004
0.26999998 2.2612586 0.058892999
0.26550001 2.2612586 0.057579
0.26100001 2.2612586 0.056702998
0.25650001 2.2612586 0.056265
0.2025 2.2612586 0.058235999
0.198 2.2612586 0.056922
0.19350001 2.2612586 0.058235999
0.189 2.2612586 0.055826999
0.18449999 2.2612586 0.110139
0.18000001 2.2612586 0.137733
0.17549999 2.2612586 0.104445
0.171 2.2612586 0.067872003
0.1665 2.2612586 0.066557996
0.162 2.2612586 0.063711002
0.1575 2.2612586 0.061520997
0.15300001 2.2612586 0.059988003
0.1485 2.2612586 0.058017001
0.14400001 2.2612586 0.057579
0.13950001 2.2612586 0.058455002
0.13499999 2.2612586 0.058892999
0.1305 2.2612586 0.058892999
0.126 2.2612586 0.058235999
0.1215 2.2612586 0.057579
0.117 2.2612586 0.054732002
0.1125 2.2612586 0.054513
0.108 2.2612586 0.055388998
0.1035 2.2612586 0.05517
0.098999999 2.2612586 0.05517
0.094499998 2.2612586 0.055388998
0.090000004 2.2612586 0.054951001
0.085500002 2.2612586 0.054294001
0.081 2.2612586 0.054074999
0.076500006 2.2612586 0.05517
0.072000004 2.2612586 0.055608001
0.067499995 2.2612586 0.055608001
0.063000001 2.2612586 0.055826999
0.058499999 2.2612586 0.056702998
0.053999998 2.2612586 0.057140999
0.0495 2.2612586 0.055608001
0.045000002 2.2612586 0.054294001
0.0405 2.2612586 0.056046002
0.036000002 2.2612586 0.057579
0.031500001 2.2612586 0.056702998
0.026999999 2.2612586 0.057360001
0.022500001 2.2612586 0.056265
0.018000001 2.2612586 0.056046002
0.013499999 2.2612586 0.056046002
0.0090000005 2.2612586 0.056483999
0.0045000003 2.2612586 0.057140999
-0 2.2612586 0.056483999
-0.0045000003 2.2612586 0.055608001
-0.0090000005 2.2612586 0.056046002
-0.013499999 2.2612586 0.055388998
-0.018000001 2.2612586 0.056265
-0.022500001 2.2612586 0.056922
-0.026999999 2.2612586 0.056265
-0.031500001 2.2612586 0.055826999
-0.036000002 2.2612586 0.056265
-0.0405 2.2612586 0.056483999
-0.045000002 2.2612586 0.056046002
-0.0495 2.2612586 0.056702998
-0.053999998 2.2612586 0.056265
-0.058499999 2.2612586 0.054732002
-0.063000001 2.2612586 0.054732002
-0.067499995 2.2612586 0.055826999
-0.072000004 2.2612586 0.056702998
-0.076500006 2.2612586 0.057140999
-0.081 2.2612586 0.057360001
-0.085500002 2.2612586 0.057140999
-0.090000004 2.2612586 0.058017001
-0.094499998 2.2612586 0.057360001
-0.098999999 2.2612586 0.056483999
-0.1035 2.2612586 0.059112005
-0.108 2.2612586 0.060207002
-0.1125 2.2612586 0.060644999
-0.117 2.2612586 0.060864002
-0.1215 2.2612586 0.063053995
-1.4535 2.2612586 0.072033003
-1.4579999 2.2612586 0.073128
-1.4625 2.2612586 0.075099006
-1.836 2.2612586 0.083640002
-1.8405 2.2612586 0.066557996
-1.845 2.2612586 0.044658002
1.9529999 2.2893491 0.63968098
1.9484999 2.2893491 0.59894699
1.944 2.2893491 0.58471203
1.9395 2.2893491 0.574857
1.6245 2.2893491 0.64887899
1.62 2.2893491 0.64756501
1.4940001 2.2893491 0.63792896
1.4894999 2.2893491 0.63749099
1.485 2.2893491 0.63376796
1.4805 2.2893491 0.60529804
1.476 2.2893491 0.51813602
1.4715 2.2893491 0.44389501
1.467 2.2893491 0.36833999
1.4625 2.2893491 0.29278499
1.4579999 2.2893491 0.2676
1.4535 2.2893491 0.25665
1.449 2.2893491 0.251394
1.4445 2.2893491 0.24832799
1.4400001 2.2893491 0.24372901
1.4355 2.2893491 0.24219599
1.377 2.2893491 0.25599298
1.3724999 2.2893491 0.26124901
1.368 2.2893491 0.26672399
1.3635 2.2893491 0.27636001
1.359 2.2893491 0.28730997
1.3545001 2.2893491 0.29826
1.35 2.2893491 0.310305
1.3455 2.2893491 0.32453999
1.341 2.2893491 0.340965
1.3365 2.2893491 0.35322899
1.332 2.2893491 0.36505499
1.3275 2.2893491 0.37819499
1.3230001 2.2893491 0.39133498
1.3184999 2.2893491 0.40338001
1.314 2.2893491 0.41586301
1.3095 2.2893491 0.43141201
1.3049999 2.2893491 0.444114
1.3005 2.2893491 0.45594001
1.296 2.2893491 0.466452
1.2915 2.2893491 0.48200101
1.2869999 2.2893491 0.49645498
1.2825 2.2893491 0.50784296
1.278 2.2893491 0.51923102
1.2735 2.2893491 0.532152
1.2690001 2.2893491 0.54572999
1.2644999 2.2893491 0.55777496
1.26 2.2893491 0.56784904
1.2375001 2.2893491 0.63048303
1.2329999 2.2893491 0.63749099
1.2285 2.2893491 0.641433
1.2240001 2.2893491 0.642528
1.2194999 2.2893491 0.642528
1.215 2.2893491 0.64230901
1.2105 2.2893491 0.64121395
1.0664999 2.2893491 0.638367
1.062 2.2893491 0.63858604
0.82800001 2.2893491 0.63267297
0.82350004 2.2893491 0.637272
0.65249997 2.2893491 0.634206
0.648 2.2893491 0.634206
0.64349997 2.2893491 0.63530099
0.639 2.2893491 0.54354
0.63450003 2.2893491 0.25183198
0.63 2.2893491 0.252489
0.62550002 2.2893491 0.24745199
0.62099999 2.2893491 0.24416699
0.61649996 2.2893491 0.24066299
0.61200005 2.2893491 0.238911
0.60750002 2.2893491 0.23650199
0.60299999 2.2893491 0.23584498
0.495 2.2893491 0.23737802
0.49049997 2.2893491 0.23453099
0.486 2.2893491 0.236283
0.4815 2.2893491 0.23475
0.47700003 2.2893491 0.235626
0.4725 2.2893491 0.073566005
0.324 2.2893491 0.056702998
-1.5434999 2.2893491 0.085611001
-1.5480001 2.2893491 0.086705998
-1.5525 2.2893491 0.089552999
-1.5569999 2.2893491 0.092180997
-1.5615 2.2893491 0.094808996
-1.566 2.2893491 0.10094099
-1.5705 2.2893491 0.104226
-1.5749999 2.2893491 0.108606
-1.5795001 2.2893491 0.114081
-1.584 2.2893491 0.11867999
-1.5884999 2.2893491 0.121746
-1.5930001 2.2893491 0.123936
-1.5975 2.2893491 0.12568799
-1.602 2.2893491 0.127221
-1.6065 2.2893491 0.12503101
-1.6110001 2.2893491 0.12744001
-1.6155 2.2893491 0.12787801
-1.62 2.2893491 0.12897301
-1.6245 2.2893491 0.129411
-1.6289999 2.2893491 0.12897301
-1.6335001 2.2893491 0.128316
-1.638 2.2893491 0.12897301
-1.6424999 2.2893491 0.12897301
-1.6470001 2.2893491 0.126783
-1.6515 2.2893491 0.124812
-1.656 2.2893491 0.128097
-1.6604999 2.2893491 0.128097
-1.665 2.2893491 0.12919201
-1.6695 2.2893491 0.13203901
-1.6739999 2.2893491 0.135543
-1.6785001 2.2893491 0.133572
-1.683 2.2893491 0.132258
-1.6875 2.2893491 0.13160101
-1.692 2.2893491 0.130944
-1.6964999 2.2893491 0.13181999
-1.701 2.2893491 0.133791
-1.7055 2.2893491 0.13400999
-1.71 2.2893491 0.13313401
-1.7145 2.2893491 0.131382
-1.7190001 2.2893491 0.129411
-1.7235 2.2893491 0.12634499
-1.7279999 2.2893491 0.12327901
-1.7325001 2.2893491 0.119994
-1.8405 2.2893491 0.066996001
-1.845 2.2893491 0.044877
1.998 2.3174393 0.64318502
1.9935 2.3174393 0.640338
1.989 2.3174393 0.63990003
1.9845001 2.3174393 0.64165199
1.827 2.3174393 0.638367
1.8225 2.3174393 0.634206
1.6785001 2.3174393 0.64800298
1.6739999 2.3174393 0.64603198
1.476 2.3174393 0.62391299
1.4715 2.3174393 0.57726598
1.467 2.3174393 0.50784296
1.4625 2.3174393 0.41980499
1.4579999 2.3174393 0.354105
1.4535 2.3174393 0.28292999
1.449 2.3174393 0.266067
1.359 2.3174393 0.268038
1.3545001 2.3174393 0.27833101
1.35 2.3174393 0.292128
1.3455 2.3174393 0.302421
1.341 2.3174393 0.31468502
1.3365 2.3174393 0.32826298
1.332 2.3174393 0.342498
1.3275 2.3174393 0.356076
1.3230001 2.3174393 0.368559
1.3184999 2.3174393 0.379071
1.314 2.3174393 0.393525
1.3095 2.3174393 0.40797898
1.3049999 2.3174393 0.421119
1.3005 2.3174393 0.43185002
1.296 2.3174393 0.44477099
1.2915 2.3174393 0.46053901
1.2869999 2.3174393 0.47192702
1.2825 2.3174393 0.48397198
1.278 2.3174393 0.49733099
1.2735 2.3174393 0.51112801
1.2690001 2.3174393 0.522735
1.2644999 2.3174393 0.53390396
1.26 2.3174393 0.54704404
1.2555001 2.3174393 0.55865097
1.017 2.3174393 0.63398701
1.0125 2.3174393 0.632016
0.88200003 2.3174393 0.63770998
0.8775 2.3174393 0.63946199
0.62550002 2.3174393 0.63070202
0.62099999 2.3174393 0.60332698
0.61649996 2.3174393 0.36614999
0.61200005 2.3174393 0.29278499
0.60750002 2.3174393 0.25424099
0.47700003 2.3174393 0.236283
0.4725 2.3174393 0.072470993
0.36000001 2.3174393 0.054951001
-1.7775 2.3174393 0.105978
-1.7819999 2.3174393 0.106197
-1.7865 2.3174393 0.104883
-1.8180001 2.3174393 0.093275994
-1.8225 2.3174393 0.091962002
-1.827 2.3174393 0.091523997
-1.8315001 2.3174393 0.093056999
-1.836 2.3174393 0.091962002
-1.8405 2.3174393 0.091523997
1.467 2.3455293 0.59106296
1.4625 2.3455293 0.55383301
1.4579999 2.3455293 0.47762102
1.4535 2.3455293 0.399876
1.449 2.3455293 0.33023399
1.4445 2.3455293 0.27833101
1.4400001 2.3455293 0.26256299
1.35 2.3455293 0.271323
1.3455 2.3455293 0.279645
1.341 2.3455293 0.291033
1.3365 2.3455293 0.30680102
1.332 2.3455293 0.321693
1.3275 2.3455293 0.332205
1.3230001 2.3455293 0.345783
1.3184999 2.3455293 0.359799
1.314 2.3455293 0.37293902
1.3095 2.3455293 0.38586
1.3049999 2.3455293 0.39812401
1.3005 2.3455293 0.410826
1.296 2.3455293 0.42352802
1.2915 2.3455293 0.43535402
1.2869999 2.3455293 0.44739899
1.2825 2.3455293 0.462291
1.278 2.3455293 0.47608802
1.2735 2.3455293 0.48900899
1.2690001 2.3455293 0.500835
1.2644999 2.3455293 0.51287997
1.26 2.3455293 0.52470601
1.2555001 2.3455293 0.53740799
1.251 2.3455293 0.55010998
1.2465 2.3455293 0.56259298
1.215 2.3455293 0.64165199
0.61649996 2.3455293 0.63464403
0.61200005 2.3455293 0.413892
0.60750002 2.3455293 0.35279101
0.60299999 2.3455293 0.30833399
0.59850001 2.3455293 0.263877
0.59399998 2.3455293 0.24570002
0.47700003 2.3455293 0.24088201
0.4725 2.3455293 0.075318001
0.38700002 2.3455293 0.048819002
0.38249999 2.3455293 0.038307
2.0115001 2.3736198 0.63376796
2.007 2.3736198 0.63223499
1.4579999 2.3736198 0.61734301
1.4535 2.3736198 0.53916001
1.449 2.3736198 0.46557599
1.4445 2.3736198 0.37403399
1.4400001 2.3736198 0.31052402
1.4355 2.3736198 0.27351302
1.431 2.3736198 0.263877
1.341 2.3736198 0.27460799
1.3365 2.3736198 0.28730997
1.332 2.3736198 0.29738399
1.3275 2.3736198 0.30986699
1.3230001 2.3736198 0.32563502
1.3184999 2.3736198 0.33724198
1.314 2.3736198 0.349287
1.3095 2.3736198 0.362427
1.3049999 2.3736198 0.37512901
1.3005 2.3736198 0.38848799
1.296 2.3736198 0.40118998
1.2915 2.3736198 0.40994999
1.2869999 2.3736198 0.42549899
1.2825 2.3736198 0.44060999
1.278 2.3736198 0.45221701
1.2735 2.3736198 0.462291
1.2690001 2.3736198 0.474774
1.2644999 2.3736198 0.48966599
1.26 2.3736198 0.50411999
1.2555001 2.3736198 0.518574
1.251 2.3736198 0.53237098
1.2465 2.3736198 0.54397798
1.242 2.3736198 0.554052
1.2375001 2.3736198 0.564345
1.2329999 2.3736198 0.57748502
0.60750002 2.3736198 0.62982601
0.60299999 2.3736198 0.47017497
0.59850001 2.3736198 0.35673299
0.59399998 2.3736198 0.29847902
0.58949995 2.3736198 0.264534
0.58500004 2.3736198 0.245481
0.4815 2.3736198 0.238911
0.47700003 2.3736198 0.245481
0.4725 2.3736198 0.074223004
0.405 2.3736198 0.045534
2.016 2.4017098 0.64187098
1.4535 2.4017098 0.63376796
1.449 2.4017098 0.591501
1.4445 2.4017098 0.52120197
1.4400001 2.4017098 0.434259
1.4355 2.4017098 0.35103899
1.431 2.4017098 0.29453701
1.4265 2.4017098 0.277017
1.4220001 2.4017098 0.26891401
1.332 2.4017098 0.28205401
1.3275 2.4017098 0.29190901
1.3230001 2.4017098 0.30285901
1.3184999 2.4017098 0.315561
1.314 2.4017098 0.328044
1.3095 2.4017098 0.34140298
1.3049999 2.4017098 0.35476202
1.3005 2.4017098 0.36877802
1.296 2.4017098 0.38148001
1.2915 2.4017098 0.39330599
1.2869999 2.4017098 0.404475
1.2825 2.4017098 0.41608199
1.278 2.4017098 0.42965999
1.2735 2.4017098 0.44542798
1.2690001 2.4017098 0.45703501
1.2644999 2.4017098 0.46951801
1.26 2.4017098 0.48243898
1.2555001 2.4017098 0.495579
1.251 2.4017098 0.50871897
1.2465 2.4017098 0.52120197
1.242 2.4017098 0.531057
1.2375001 2.4017098 0.54375899
1.2329999 2.4017098 0.55646098
1.2285 2.4017098 0.568506
1.2240001 2.4017098 0.58033204
1.2194999 2.4017098 0.593472
1.215 2.4017098 0.60639298
1.2105 2.4017098 0.61668599
1.206 2.4017098 0.62741703
0.59399998 2.4017098 0.54682505
0.58949995 2.4017098 0.45046499
0.58500004 2.4017098 0.33308098
0.58050001 2.4017098 0.28249201
0.57600003 2.4017098 0.259278
0.5715 2.4017098 0.252489
0.56699997 2.4017098 0.24789001
0.5625 2.4017098 0.244605
0.49950001 2.4017098 0.24613799
0.495 2.4017098 0.247233
0.49049997 2.4017098 0.251394
0.486 2.4017098 0.251394
0.4815 2.4017098 0.11867999
0.47700003 2.4017098 0.075536996
0.4725 2.4017098 0.074661002
0.42300001 2.4017098 0.054732002
0.41849998 2.4017098 0.034364998
2.016 2.4298003 0.644499
1.4445 2.4298003 0.62632203
1.4400001 2.4298003 0.569601
1.4355 2.4298003 0.48484799
1.431 2.4298003 0.40053299
1.4265 2.4298003 0.329577
1.4220001 2.4298003 0.303078
1.4175 2.4298003 0.28818601
1.413 2.4298003 0.28073999
1.4085001 2.4298003 0.27417001
1.3230001 2.4298003 0.29694599
1.3184999 2.4298003 0.30439201
1.314 2.4298003 0.31380901
1.3095 2.4298003 0.321255
1.3049999 2.4298003 0.330015
1.3005 2.4298003 0.34118399
1.296 2.4298003 0.35519999
1.2915 2.4298003 0.36833999
1.2869999 2.4298003 0.381699
1.2825 2.4298003 0.39505801
1.278 2.4298003 0.40732199
1.2735 2.4298003 0.420681
1.2690001 2.4298003 0.43513501
1.2644999 2.4298003 0.448275
1.26 2.4298003 0.46010101
1.2555001 2.4298003 0.472146
1.251 2.4298003 0.483753
1.2465 2.4298003 0.49711201
1.242 2.4298003 0.51112801
1.2375001 2.4298003 0.52492499
1.2329999 2.4298003 0.535218
1.2285 2.4298003 0.54638696
1.2240001 2.4298003 0.55865097
1.2194999 2.4298003 0.57332402
1.215 2.4298003 0.58536899
1.2105 2.4298003 0.59412903
1.206 2.4298003 0.60157502
1.2014999 2.4298003 0.61843801
0.495 2.4298003 0.634206
0.49049997 2.4298003 0.636177
0.486 2.4298003 0.63639599
0.4815 2.4298003 0.63639599
0.47700003 2.4298003 0.63376796
0.4725 2.4298003 0.073347002
0.43199998 2.4298003 0.053199001
0.42750001 2.4298003 0.034364998
2.016 2.4578903 0.64121395
1.4355 2.4578903 0.61186796
1.431 2.4578903 0.55448997
1.4265 2.4578903 0.461853
1.4220001 2.4578903 0.38607901
1.4175 2.4578903 0.347316
1.413 2.4578903 0.33089098
1.4085001 2.4578903 0.321693
1.4039999 2.4578903 0.31380901
1.3995 2.4578903 0.307239
1.395 2.4578903 0.30285901
1.3904999 2.4578903 0.29760298
1.386 2.4578903 0.293661
1.3815 2.4578903 0.29234701
1.3049999 2.4578903 0.33154801
1.3005 2.4578903 0.337899
1.296 2.4578903 0.344688
1.2915 2.4578903 0.35519999
1.2869999 2.4578903 0.36505499
1.2825 2.4578903 0.37469098
1.278 2.4578903 0.385203
1.2735 2.4578903 0.39637199
1.2690001 2.4578903 0.41016901
1.2644999 2.4578903 0.42528
1.26 2.4578903 0.44060999
1.2555001 2.4578903 0.452874
1.251 2.4578903 0.462291
1.2465 2.4578903 0.47126999
1.242 2.4578903 0.487914
1.2375001 2.4578903 0.50214899
1.2329999 2.4578903 0.51485103
1.2285 2.4578903 0.526896
1.2240001 2.4578903 0.53981704
1.2194999 2.4578903 0.55208099
1.215 2.4578903 0.56149799
1.2105 2.4578903 0.574857
1.206 2.4578903 0.586245
0.47700003 2.4578903 0.633111
0.4725 2.4578903 0.074879996
0.46799999 2.4578903 0.071594998
0.46349999 2.4578903 0.070062004
0.44100001 2.4578903 0.071814001
0.43650001 2.4578903 0.054732002
0.43199998 2.4578903 0.036555
2.016 2.4859805 0.64099497
1.431 2.4859805 0.63354897
1.4265 2.4859805 0.59544301
1.4220001 2.4859805 0.52667701
1.4175 2.4859805 0.43929601
1.413 2.4859805 0.401409
1.4085001 2.4859805 0.38454598
1.4039999 2.4859805 0.372282
1.3995 2.4859805 0.36417899
1.395 2.4859805 0.356076
1.3904999 2.4859805 0.35213402
1.386 2.4859805 0.347316
1.3815 2.4859805 0.34337398
1.377 2.4859805 0.34227902
1.3724999 2.4859805 0.34206
1.368 2.4859805 0.340965
1.3635 2.4859805 0.33921298
