# .PCD v0.7 - Point Cloud Data file format
VERSION 0.7
FIELDS x y z
SIZE 4 4 4
TYPE F F F
COUNT 1 1 1
WIDTH 1627
HEIGHT 1
VIEWPOINT 0 0 0 1 0 0 0
POINTS 1627
DATA ascii
61.275002 -78.652725 74.587822
31.875 -78.652725 85.906837
-30.225 -78.652725 95.118011
73.724998 -78.652725 66.233803
57.375 -78.652725 73.125
27.375 -78.652725 82.308403
-32.625 -78.652725 94.514
74.775002 -77.716385 68.07354
61.424999 -77.716385 74.744629
31.424999 -77.716385 86.147575
-29.775 -77.716385 95.130257
72.675003 -77.716385 67.022202
57.224998 -77.716385 73.563004
27.375 -77.716385 82.512802
-32.625 -77.716385 94.514
74.625 -76.780045 68.530212
61.575001 -76.780045 74.896866
58.575001 -76.780045 74.596291
31.125 -76.780045 86.37236
-29.475 -76.780045 95.155838
-50.474998 -76.780045 96.15377
72.074997 -76.780045 67.671898
59.625 -76.780045 74.037498
56.325001 -76.780045 73.906097
26.325001 -76.780045 82.804802
-32.325001 -76.780045 94.506699
-69.974998 -76.780045 94.652702
73.875 -75.843704 68.973267
61.575001 -75.843704 75.018158
58.275002 -75.843704 75.225983
30.825001 -75.843704 86.592598
-28.875 -75.843704 95.244476
-51.974998 -75.843704 96.201622
71.474998 -75.843704 68.175598
60.075001 -75.843704 74.241898
56.325001 -75.843704 74.205399
26.475 -75.843704 82.972702
-31.424999 -75.843704 94.535896
-68.324997 -75.843704 94.995796
72.974998 -74.907356 69.63031
61.724998 -74.907356 75.197708
58.424999 -74.907356 75.975296
30.375 -74.907356 86.816864
-28.575001 -74.907356 95.239693
-50.775002 -74.907356 96.270409
71.175003 -74.907356 68.796097
59.924999 -74.907356 74.373299
55.724998 -74.907356 74.482803
25.875 -74.907356 83.206299
-31.275 -74.907356 94.579697
-68.175003 -74.907356 95.368103
72.375 -73.971016 70.294403
61.875 -73.971016 75.30648
58.275002 -73.971016 76.56514
29.924999 -73.971016 87.072632
-28.275 -73.971016 95.286034
-52.875 -73.971016 96.275505
70.425003 -73.971016 69.277901
60.075001 -73.971016 74.387901
55.424999 -73.971016 74.825897
25.575001 -73.971016 83.366898
-30.375 -73.971016 94.565102
-70.425003 -73.971016 95.492203
71.625 -73.034676 70.917603
62.025002 -73.034676 75.459435
58.125 -73.034676 77.027771
29.625 -73.034676 87.277275
-27.525 -73.034676 95.281631
-49.275002 -73.034676 96.344406
70.425003 -73.034676 70.051697
60.224998 -73.034676 74.621498
54.674999 -73.034676 75.205498
24.975 -73.034676 83.527496
-30.525 -73.034676 94.535896
-69.675003 -73.034676 95.579803
62.025002 -72.098335 75.606934
57.825001 -72.098335 77.35714
29.174999 -72.098335 87.495453
-27.225 -72.098335 95.304062
-59.174999 -72.098335 96.199112
60.525002 -72.098335 74.825897
54.525002 -72.098335 75.548599
24.375 -72.098335 83.7976
-30.225 -72.098335 94.550499
-69.974998 -72.098335 95.681999
62.174999 -71.161995 75.760406
57.525002 -71.161995 77.680351
28.875 -71.161995 87.696686
-27.075001 -71.161995 95.327393
-53.325001 -71.161995 96.401665
60.525002 -71.161995 74.782097
54.224998 -71.161995 75.745697
24.375 -71.161995 83.9655
-29.924999 -71.161995 94.535896
-70.125 -71.161995 95.806099
62.325001 -70.225655 75.895119
57.075001 -70.225655 78.057343
28.424999 -70.225655 87.93055
-26.475 -70.225655 95.359428
-53.775002 -70.225655 96.481895
60.674999 -70.225655 75.0522
53.775002 -70.225655 76.147202
23.775 -70.225655 84.155296
-29.625 -70.225655 94.543198
-69.224998 -70.225655 95.8937
62.474998 -69.289314 76.038841
56.625 -69.289314 78.361557
27.975 -69.289314 88.177162
-26.174999 -69.289314 95.403847
60.825001 -69.289314 75.212799
53.174999 -69.289314 76.417297
22.875 -69.289314 84.440002
-28.875 -69.289314 94.565102
62.625 -68.352974 76.204865
56.325001 -68.352974 78.717529
27.525 -68.352974 88.365135
-25.725 -68.352974 95.38131
-54.375 -68.352974 96.59948
60.974998 -68.352974 75.402603
53.174999 -68.352974 76.775002
22.424999 -68.352974 84.651703
-28.725 -68.352974 94.521301
-69.675003 -68.352974 96.054298
62.775002 -67.416634 76.332169
55.875 -67.416634 79.02002
27.225 -67.416634 88.566635
-25.125 -67.416634 95.397049
-58.575001 -67.416634 96.536903
60.974998 -67.416634 75.497498
52.875 -67.416634 77.0159
22.275 -67.416634 84.797699
-27.975 -67.416634 94.543198
-69.074997 -67.416634 96.134598
62.924999 -66.480293 76.397545
55.575001 -66.480293 79.304909
26.775 -66.480293 88.779694
-24.825001 -66.480293 95.409637
-54.525002 -66.480293 96.645149
61.125 -66.480293 75.533997
52.125 -66.480293 77.205704
21.975 -66.480293 84.965599
-27.975 -66.480293 94.499397
-69.074997 -66.480293 96.200302
62.924999 -65.543953 76.555542
55.125 -65.543953 79.61673
26.325001 -65.543953 88.97374
-24.225 -65.543953 95.402557
-53.924999 -65.543953 96.66436
61.275002 -65.543953 75.738403
51.375 -65.543953 77.534203
21.825001 -65.543953 85.1408
-26.924999 -65.543953 94.535896
-69.675003 -65.543953 96.236801
63.075001 -64.607613 76.692787
54.825001 -64.607613 79.929871
26.025 -64.607613 89.151802
-23.775 -64.607613 95.384758
-54.674999 -64.607613 96.681206
61.275002 -64.607613 75.7603
51.525002 -64.607613 77.818901
21.075001 -64.607613 85.294098
-27.225 -64.607613 94.455597
-68.775002 -64.607613 96.200302
63.224998 -63.671268 76.804588
54.375 -63.671268 80.213531
25.575001 -63.671268 89.340851
-23.475 -63.671268 95.404274
-55.424999 -63.671268 96.716461
61.275002 -63.671268 75.891701
51.075001 -63.671268 78.067101
21.075001 -63.671268 85.498497
-26.475 -63.671268 94.419098
-68.625 -63.671268 96.2295
63.375 -62.734928 76.922043
54.075001 -62.734928 80.51223
25.125 -62.734928 89.511299
-23.025 -62.734928 95.375816
-58.125 -62.734928 96.705406
61.424999 -62.734928 75.993896
50.625 -62.734928 78.300697
20.625 -62.734928 85.666397
-26.325001 -62.734928 94.433701
-69.974998 -62.734928 96.309799
63.525002 -61.798588 77.030777
53.775002 -61.798588 80.806648
24.674999 -61.798588 89.676598
-22.725 -61.798588 95.420967
-58.724998 -61.798588 96.732239
61.424999 -61.798588 76.0961
50.174999 -61.798588 78.599998
20.025 -61.798588 85.834297
-25.875 -61.798588 94.433701
-71.175003 -61.798588 96.375504
63.674999 -60.862244 77.156555
53.325001 -60.862244 81.05455
24.225 -60.862244 89.882896
-22.275 -60.862244 95.418709
-61.424999 -60.862244 96.707741
61.575001 -60.862244 76.227501
49.875 -60.862244 78.833603
19.575001 -60.862244 86.024101
-25.424999 -60.862244 94.367996
-69.824997 -60.862244 96.375504
63.825001 -59.925903 77.262444
53.025002 -59.925903 81.373932
23.924999 -59.925903 90.051666
-21.674999 -59.925903 95.40712
-57.075001 -59.925903 96.830421
61.724998 -59.925903 76.358902
49.275002 -59.925903 79.176697
19.125 -59.925903 86.199303
-24.825001 -59.925903 94.3461
-70.275002 -59.925903 96.390099
63.974998 -58.989563 77.332016
52.575001 -58.989563 81.616234
23.325001 -58.989563 90.259232
-21.225 -58.989563 95.435219
-56.775002 -58.989563 96.845139
61.875 -58.989563 76.417297
49.125 -58.989563 79.395699
18.825001 -58.989563 86.440201
-24.225 -58.989563 94.331497
-67.875 -58.989563 96.514198
64.125 -58.053223 77.508858
52.125 -58.053223 81.898857
22.875 -58.053223 90.447334
-20.924999 -58.053223 95.464951
-57.224998 -58.053223 96.875206
61.875 -58.053223 76.504898
48.525002 -58.053223 79.651199
18.225 -58.053223 86.6884
-24.075001 -58.053223 94.324203
-69.074997 -58.053223 96.499603
63.974998 -57.116882 77.625511
51.825001 -57.116882 82.14415
22.424999 -57.116882 90.567802
-20.325001 -57.116882 95.434143
-58.125 -57.116882 96.889969
62.325001 -57.116882 76.753098
47.924999 -57.116882 79.841003
17.775 -57.116882 87.046097
-23.924999 -57.116882 94.309601
-69.974998 -57.116882 96.528801
64.275002 -56.180538 77.70842
51.525002 -56.180538 82.404259
22.275 -56.180538 90.657227
-19.875 -56.180538 95.440201
-55.275002 -56.180538 96.95784
62.174999 -56.180538 76.775002
47.625 -56.180538 80.096497
16.424999 -56.180538 87.454903
-23.325001 -56.180538 94.287697
-69.974998 -56.180538 96.587196
64.425003 -55.244198 77.816299
51.075001 -55.244198 82.669579
22.275 -55.244198 90.744339
-19.725 -55.244198 95.467384
-55.125 -55.244198 96.993118
62.474998 -55.244198 76.840698
47.025002 -55.244198 80.3228
16.275 -55.244198 87.892899
-23.025 -55.244198 94.287697
-69.824997 -55.244198 96.6091
64.425003 -54.307858 77.921936
50.775002 -54.307858 82.922722
18.375 -54.307858 90.721489
-19.125 -54.307858 95.452347
-72.974998 -54.307858 96.893799
62.625 -54.307858 76.950203
46.724998 -54.307858 80.549103
14.775 -54.307858 88.455002
-22.725 -54.307858 94.294998
-82.574997 -54.307858 92.367798
64.574997 -53.371517 78.025444
50.325001 -53.371517 83.183189
16.725 -53.371517 91.082199
-18.825001 -53.371517 95.472748
-70.425003 -53.371517 96.725121
62.775002 -53.371517 77.110802
46.724998 -53.371517 80.797302
13.575 -53.371517 89.228798
-22.125 -53.371517 94.2658
-83.625 -53.371517 91.703499
64.574997 -52.435177 78.153435
49.875 -52.435177 83.439186
22.125 -52.435177 91.033264
14.475 -52.435177 91.437698
-18.375 -52.435177 95.505005
-65.925003 -52.435177 96.928101
62.924999 -52.435177 77.212997
46.275002 -52.435177 81.009003
20.025 -52.435177 90.820198
12.075 -52.435177 90.250801
-21.825001 -52.435177 94.302299
-84.224998 -52.435177 91.134102
64.724998 -51.498837 78.240639
49.424999 -51.498837 83.702377
21.975 -51.498837 91.098114
-18.075001 -51.498837 95.512718
-60.224998 -51.498837 97.097656
-77.175003 -51.498837 95.827972
62.924999 -51.498837 77.286003
45.825001 -51.498837 81.227997
20.174999 -51.498837 90.856697
-21.825001 -51.498837 94.338799
-75.375 -51.498837 95.3535
-84.675003 -51.498837 90.688797
64.875 -50.562492 78.37619
49.125 -50.562492 83.906097
21.975 -50.562492 91.209236
-17.475 -50.562492 95.54554
-54.525002 -50.562492 97.173317
-75.375 -50.562492 96.555984
63.075001 -50.562492 77.249496
44.924999 -50.562492 81.446999
19.575001 -50.562492 90.980797
-20.625 -50.562492 94.309601
-73.275002 -50.562492 95.959396
-85.125 -50.562492 90.499001
64.875 -49.626152 78.49398
48.825001 -49.626152 84.172333
22.125 -49.626152 91.282028
-17.174999 -49.626152 95.51046
-55.424999 -49.626152 97.223473
-74.474998 -49.626152 97.013962
63.224998 -49.626152 77.541496
44.924999 -49.626152 81.644096
20.174999 -49.626152 91.083
-20.625 -49.626152 94.309601
-72.824997 -49.626152 96.331703
-84.974998 -49.626152 90.236198
78.675003 -48.689812 71.047951
65.025002 -48.689812 78.547005
48.375 -48.689812 84.384293
21.975 -48.689812 91.341751
-16.575001 -48.689812 95.551125
-59.625 -48.689812 97.192116
-73.125 -48.689812 97.340248
77.324997 -48.689812 70.577301
63.224998 -48.689812 77.490402
44.474998 -48.689812 81.855797
20.325001 -48.689812 91.134102
-20.325001 -48.689812 94.294998
-70.724998 -48.689812 96.630997
-85.425003 -48.689812 90.0756
77.625 -47.753471 72.761742
65.324997 -47.753471 78.619255
48.075001 -47.753471 84.587013
22.125 -47.753471 91.420944
-16.275 -47.753471 95.536705
-56.924999 -47.753471 97.265656
-73.425003 -47.753471 97.354248
75.375 -47.753471 71.781799
63.375 -47.753471 77.5196
44.174999 -47.753471 82.052902
20.174999 -47.753471 91.1633
-19.275 -47.753471 94.280403
-69.074997 -47.753471 96.893799
-85.574997 -47.753471 90.009903
76.125 -46.817131 73.697189
64.875 -46.817131 78.597374
47.625 -46.817131 84.833389
22.125 -46.817131 91.496635
-15.825 -46.817131 95.56311
-54.674999 -46.817131 97.315231
-73.574997 -46.817131 97.369507
72.824997 -46.817131 72.584801
63.674999 -46.817131 77.7313
43.724998 -46.817131 82.257301
20.174999 -46.817131 91.302002
-19.125 -46.817131 94.214699
-68.175003 -46.817131 96.937599
-85.574997 -46.817131 89.915001
74.775002 -45.880791 74.453293
47.325001 -45.880791 85.004929
22.125 -45.880791 91.567665
-15.525 -45.880791 95.509888
-73.275002 -45.880791 97.387634
71.925003 -45.880791 73.351303
43.275002 -45.880791 82.447098
19.725 -45.880791 91.345802
-18.975 -45.880791 94.214699
-85.574997 -45.880791 89.710602
73.724998 -44.944447 75.07428
46.875 -44.944447 85.216728
-15.075 -44.944447 95.525871
-60.375 -44.944447 97.288429
-73.275002 -44.944447 97.40889
70.875 -44.944447 73.8769
42.525002 -44.944447 82.629601
-18.225 -44.944447 94.185501
-67.425003 -44.944447 96.988701
-85.724998 -44.944447 89.980698
72.824997 -44.008106 75.570023
46.575001 -44.008106 85.432831
22.275 -44.008106 91.689178
-14.775 -44.008106 95.516525
-73.275002 -44.008106 97.431328
69.974998 -44.008106 74.402496
42.674999 -44.008106 82.812103
20.325001 -44.008106 91.506401
-18.075001 -44.008106 94.185501
-85.875 -44.008106 90.039101
72.224998 -43.071766 76.037483
46.125 -43.071766 85.629929
22.125 -43.071766 91.726013
-14.175 -43.071766 95.515099
-73.275002 -43.071766 97.462807
68.925003 -43.071766 74.862396
42.075001 -43.071766 82.987297
20.025 -43.071766 91.579399
-17.174999 -43.071766 94.170898
-86.025002 -43.071766 90.0756
71.474998 -42.135426 76.439041
45.825001 -42.135426 85.845757
-13.875 -42.135426 95.512146
-59.775002 -42.135426 97.355537
-73.125 -42.135426 97.474838
68.925003 -42.135426 75.205498
41.474998 -42.135426 83.198997
-17.174999 -42.135426 94.068703
-69.224998 -42.135426 97.054398
-86.025002 -42.135426 90.060997
71.025002 -41.199085 76.785622
45.525002 -41.199085 86.010147
22.275 -41.199085 91.82827
-13.425 -41.199085 95.457733
68.025002 -41.199085 75.548599
41.474998 -41.199085 83.286598
20.325001 -41.199085 91.696198
-16.875 -41.199085 94.105202
70.574997 -40.262745 77.074371
45.075001 -40.262745 86.162514
22.275 -40.262745 91.894318
-12.975 -40.262745 95.429611
-59.625 -40.262745 97.382988
-73.275002 -40.262745 97.502502
67.574997 -40.262745 75.767601
41.474998 -40.262745 83.520203
19.725 -40.262745 91.747299
-16.125 -40.262745 94.032204
-69.675003 -40.262745 97.141998
-86.324997 -40.262745 90.060997
70.125 -39.326401 77.376129
44.625 -39.326401 86.352852
22.575001 -39.326401 91.92144
-12.525 -39.326401 95.419777
67.275002 -39.326401 76.052299
40.875 -39.326401 83.6297
20.475 -39.326401 91.725403
-16.275 -39.326401 93.973801
69.824997 -38.39006 77.590485
44.325001 -38.39006 86.498756
22.424999 -38.39006 91.977669
-12.225 -38.39006 95.378914
66.525002 -38.39006 76.256699
39.974998 -38.39006 83.8414
20.924999 -38.39006 91.813004
-15.525 -38.39006 93.915398
69.375 -37.45372 77.861649
43.875 -37.45372 86.670502
22.575001 -37.45372 92.049355
-11.775 -37.45372 95.354103
-59.025002 -37.45372 97.378967
66.224998 -37.45372 76.577904
40.275002 -37.45372 83.980103
20.924999 -37.45372 91.820297
-15.225 -37.45372 93.8862
-68.474998 -37.45372 97.105499
68.925003 -36.51738 78.112442
43.575001 -36.51738 86.857277
22.424999 -36.51738 92.080574
-11.325 -36.51738 95.328529
65.925003 -36.51738 76.789597
39.525002 -36.51738 84.126099
20.625 -36.51738 91.886002
-14.025 -36.51738 93.8862
68.625 -35.581039 78.401428
43.125 -35.581039 87.050514
22.424999 -35.581039 92.151146
-11.025 -35.581039 95.262108
65.625 -35.581039 77.074303
38.775002 -35.581039 84.286697
20.625 -35.581039 91.929802
-14.025 -35.581039 93.878899
68.175003 -34.644695 78.63987
42.674999 -34.644695 87.189285
22.575001 -34.644695 92.202637
-10.575 -34.644695 95.286186
65.324997 -34.644695 77.337097
38.924999 -34.644695 84.491096
20.625 -34.644695 92.017403
-13.875 -34.644695 93.725601
67.875 -33.708355 78.890244
42.375 -33.708355 87.346619
-10.125 -33.708355 95.211304
-58.875 -33.708355 97.385422
65.025002 -33.708355 77.578003
37.875 -33.708355 84.585999
-13.125 -33.708355 93.7621
-69.074997 -33.708355 97.105499
67.425003 -32.772015 79.107407
41.924999 -32.772015 87.505157
22.424999 -32.772015 92.306755
-9.6750002 -32.772015 95.174133
64.275002 -32.772015 77.753197
37.724998 -32.772015 84.753899
20.775 -32.772015 92.083099
-12.975 -32.772015 93.681801
67.125 -31.835674 79.346085
41.474998 -31.835674 87.658379
22.275 -31.835674 92.334015
-9.2250004 -31.835674 95.144508
-58.125 -31.835674 97.357742
63.674999 -31.835674 77.9795
37.275002 -31.835674 84.936401
19.875 -31.835674 92.1707
-12.375 -31.835674 93.601501
-68.324997 -31.835674 97.083603
66.675003 -30.899332 79.575508
41.174999 -30.899332 87.822929
22.275 -30.899332 92.400429
-8.9250002 -30.899332 95.147987
-58.275002 -30.899332 97.332932
63.674999 -30.899332 78.205803
37.275002 -30.899332 84.980202
18.825001 -30.899332 92.148804
-11.625 -30.899332 93.630699
-69.824997 -30.899332 97.083603
66.375 -29.962992 79.835518
40.724998 -29.962992 87.959328
-8.3249998 -29.962992 95.090714
-52.875 -29.962992 97.37632
63.375 -29.962992 78.366402
36.825001 -29.962992 85.184601
-12.075 -29.962992 93.528503
-69.074997 -29.962992 97.017899
65.925003 -29.026651 80.03746
40.424999 -29.026651 88.084084
22.275 -29.026651 92.498009
-7.875 -29.026651 95.088882
-65.175003 -29.026651 97.156441
62.924999 -29.026651 78.658401
36.075001 -29.026651 85.367104
18.975 -29.026651 92.265602
-11.325 -29.026651 93.513901
-69.224998 -29.026651 96.974098
65.474998 -28.090309 80.264999
39.974998 -28.090309 88.250443
22.125 -28.090309 92.537025
-7.4250002 -28.090309 95.029274
-52.575001 -28.090309 97.370888
62.025002 -28.090309 78.811699
35.625 -28.090309 85.418198
18.075001 -28.090309 92.280197
-10.575 -28.090309 93.565002
-68.625 -28.090309 97.0252
65.025002 -27.153969 80.495651
39.525002 -27.153969 88.390411
22.125 -27.153969 92.584007
-6.8249998 -27.153969 95.005119
-61.875 -27.153969 97.181122
62.174999 -27.153969 79.089104
35.174999 -27.153969 85.571503
18.225 -27.153969 92.2948
-9.9750004 -27.153969 93.5942
-68.324997 -27.153969 96.966797
64.724998 -26.217628 80.702278
39.075001 -26.217628 88.549812
22.125 -26.217628 92.616013
-6.0749998 -26.217628 94.936447
-55.575001 -26.217628 97.284187
61.724998 -26.217628 79.264297
34.424999 -26.217628 85.732101
18.225 -26.217628 92.360497
-9.375 -26.217628 93.616096
-68.625 -26.217628 96.915703
64.275002 -25.281286 80.915298
38.775002 -25.281286 88.68792
22.125 -25.281286 92.641449
-5.3249998 -25.281286 94.792427
-51.974998 -25.281286 97.32058
61.424999 -25.281286 79.497902
34.275002 -25.281286 85.870796
18.525 -25.281286 92.433502
-8.4750004 -25.281286 93.696404
-69.375 -25.281286 96.9011
63.974998 -24.344946 81.126869
38.325001 -24.344946 88.831924
22.275 -24.344946 92.65834
-4.2750001 -24.344946 94.655724
-54.674999 -24.344946 97.257492
60.974998 -24.344946 79.651199
34.275002 -24.344946 85.958397
18.975 -24.344946 92.382401
-7.875 -24.344946 93.783997
-69.074997 -24.344946 96.842697
63.674999 -23.408606 81.31324
38.025002 -23.408606 88.961693
22.275 -23.408606 92.682014
-3.075 -23.408606 94.481354
-57.974998 -23.408606 97.111343
60.525002 -23.408606 79.8629
33.825001 -23.408606 86.075203
17.924999 -23.408606 92.455399
-6.0749998 -23.408606 93.922699
-69.375 -23.408606 96.784302
63.224998 -22.472263 81.523956
37.575001 -22.472263 89.088882
22.424999 -22.472263 92.723877
-1.875 -22.472263 94.332573
60.075001 -22.472263 80.059998
33.375 -22.472263 86.170097
18.975 -22.472263 92.4627
-5.4749999 -22.472263 94.112503
62.924999 -21.535923 81.686256
37.125 -21.535923 89.2173
22.424999 -21.535923 92.739235
59.775002 -21.535923 80.184097
32.924999 -21.535923 86.257698
18.075001 -21.535923 92.470001
62.474998 -20.599583 81.885193
36.825001 -20.599583 89.335335
22.275 -20.599583 92.752953
59.025002 -20.599583 80.439598
32.625 -20.599583 86.432899
19.875 -20.599583 92.440804
62.025002 -19.66324 82.068497
36.375 -19.66324 89.454575
22.275 -19.66324 92.767403
58.724998 -19.66324 80.563698
32.174999 -19.66324 86.542397
18.225 -19.66324 92.484596
61.724998 -18.7269 82.22683
35.924999 -18.7269 89.590302
22.275 -18.7269 92.767288
58.424999 -18.7269 80.760803
31.875 -18.7269 86.629997
18.375 -18.7269 92.484596
61.275002 -17.79056 82.443138
35.625 -17.79056 89.686653
22.125 -17.79056 92.783806
58.125 -17.79056 80.899498
31.125 -17.79056 86.695702
19.275 -17.79056 92.484596
89.025002 -16.854218 67.836418
60.825001 -16.854218 82.611725
35.325001 -16.854218 89.806175
21.975 -16.854218 92.753609
-29.924999 -16.854218 96.344086
-50.474998 -16.854218 96.946693
88.125 -16.854218 67.591599
57.525002 -16.854218 81.045502
30.375 -16.854218 86.848999
18.825001 -16.854218 92.455399
-32.474998 -16.854218 96.141899
-71.925003 -16.854218 95.784203
88.724998 -15.917877 66.912453
88.425003 -15.917877 66.700996
89.175003 -14.981536 66.295593
88.574997 -14.981536 66.131599
82.875 -14.045195 73.798149
59.775002 -14.045195 83.077942
34.125 -14.045195 90.106758
20.924999 -14.045195 92.601555
-28.725 -14.045195 96.202095
-43.424999 -14.045195 96.819672
80.925003 -14.045195 72.927902
56.174999 -14.045195 81.461601
29.625 -14.045195 87.038803
18.674999 -14.045195 92.477303
-31.424999 -14.045195 95.922897
-67.425003 -14.045195 96.1492
80.775002 -13.108854 74.883476
59.325001 -13.108854 83.202728
33.674999 -13.108854 90.177109
-28.275 -13.108854 96.12973
-47.775002 -13.108854 96.696831
78.375 -13.108854 73.935303
56.025002 -13.108854 81.644096
29.174999 -13.108854 87.068001
-31.125 -13.108854 95.835297
-68.625 -13.108854 96.1054
79.574997 -12.172513 75.611092
59.025002 -12.172513 83.317535
33.224998 -12.172513 90.273666
-27.975 -12.172513 96.067482
-44.025002 -12.172513 96.695885
77.175003 -12.172513 74.533897
55.275002 -12.172513 81.680603
29.025 -12.172513 87.170197
-30.225 -12.172513 95.7696
-66.974998 -12.172513 96.076202
78.675003 -11.236172 76.088211
58.724998 -11.236172 83.500122
32.775002 -11.236172 90.334778
-27.525 -11.236172 95.988029
-49.275002 -11.236172 96.547813
76.125 -11.236172 75.161697
54.974998 -11.236172 81.885002
28.575001 -11.236172 87.3162
-30.674999 -11.236172 95.747704
-67.574997 -11.236172 96.054298
77.625 -10.299831 76.670914
58.125 -10.299831 83.638763
32.474998 -10.299831 90.460037
-27.225 -10.299831 95.944519
-47.775002 -10.299831 96.50808
75.675003 -10.299831 75.650803
54.525002 -10.299831 82.001801
27.225 -10.299831 87.389198
-29.775 -10.299831 95.6455
-68.925003 -10.299831 95.9813
76.574997 -9.3634901 77.060936
57.825001 -9.3634901 83.728958
32.174999 -9.3634901 90.523537
-26.775 -9.3634901 95.896294
74.175003 -9.3634901 75.986603
54.525002 -9.3634901 82.0383
27.674999 -9.3634901 87.411102
-29.625 -9.3634901 95.623596
75.974998 -8.4271488 77.369293
57.375 -8.4271488 83.875198
31.575001 -8.4271488 90.621712
-26.325001 -8.4271488 95.841797
-47.775002 -8.4271488 96.385345
73.574997 -8.4271488 76.395401
54.075001 -8.4271488 82.198898
27.225 -8.4271488 87.462196
-28.725 -8.4271488 95.4776
-69.375 -8.4271488 95.879097
74.925003 -7.490808 77.75071
56.924999 -7.490808 84.003578
31.275 -7.490808 90.705894
-26.025 -7.490808 95.75209
-40.125 -7.490808 96.381134
72.675003 -7.490808 76.665497
53.174999 -7.490808 82.301102
26.174999 -7.490808 87.571701
-29.325001 -7.490808 95.448402
-69.525002 -7.490808 95.849899
74.324997 -6.5544672 78.04213
56.625 -6.5544672 84.116974
30.825001 -6.5544672 90.7649
-25.424999 -6.5544672 95.685631
72.224998 -6.5544672 76.950203
53.174999 -6.5544672 82.344902
26.325001 -6.5544672 87.571701
-27.525 -6.5544672 95.3097
73.875 -5.6181259 78.251389
56.174999 -5.6181259 84.251785
30.525 -5.6181259 90.828972
-24.975 -5.6181259 95.616547
71.625 -5.6181259 77.147301
53.025002 -5.6181259 82.381401
26.174999 -5.6181259 87.637398
-27.375 -5.6181259 95.295097
73.275002 -4.6817851 78.449516
55.875 -4.6817851 84.317474
30.075001 -4.6817851 90.885864
-24.674999 -4.6817851 95.523552
-57.075001 -4.6817851 95.942719
71.324997 -4.6817851 77.359001
52.275002 -4.6817851 82.542
25.875 -4.6817851 87.673897
-26.775 -4.6817851 95.163696
-69.974998 -4.6817851 95.594398
72.824997 -3.7454441 78.671631
56.025002 -3.7454441 84.280014
29.775 -3.7454441 90.93367
-23.924999 -3.7454441 95.463684
70.875 -3.7454441 77.541496
51.974998 -3.7454441 82.593102
24.674999 -3.7454441 87.695801
-26.475 -3.7454441 95.090698
72.224998 -2.809103 78.855316
56.174999 -2.809103 84.20826
29.475 -2.809103 90.954231
-23.475 -2.809103 95.388489
70.275002 -2.809103 77.738602
51.525002 -2.809103 82.6661
24.674999 -2.809103 87.695801
-25.725 -2.809103 95.003098
71.625 -1.872762 79.066452
56.325001 -1.872762 84.139816
53.474998 -1.872762 83.586647
28.875 -1.872762 91.013573
-23.325001 -1.872762 95.302956
-53.924999 -1.872762 95.780891
69.675003 -1.872762 77.964897
54.224998 -1.872762 83.162498
51.075001 -1.872762 82.731796
24.075001 -1.872762 87.768799
-25.875 -1.872762 94.908203
-69.224998 -1.872762 95.3097
71.175003 -0.93642098 79.275787
56.325001 -0.93642098 84.103073
53.025002 -0.93642098 83.981674
28.575001 -0.93642098 91.083054
-23.025 -0.93642098 95.205681
69.224998 -0.93642098 78.235001
54.375 -0.93642098 83.184402
50.775002 -0.93642098 82.790199
23.924999 -0.93642098 87.849098
-25.424999 -0.93642098 94.806
70.724998 -7.9999998e-05 79.458931
56.474998 -7.9999998e-05 84.053497
53.025002 -7.9999998e-05 84.471443
28.125 -7.9999998e-05 91.142319
-22.275 -7.9999998e-05 95.122772
-56.025002 -7.9999998e-05 95.561874
68.625 -7.9999998e-05 78.322601
54.525002 -7.9999998e-05 82.965401
50.325001 -7.9999998e-05 82.834
23.174999 -7.9999998e-05 87.878304
-25.125 -7.9999998e-05 94.733002
-68.625 -7.9999998e-05 95.156403
70.125 0.936261 79.615952
56.625 0.936261 84.014832
53.174999 0.936261 84.850853
27.674999 0.936261 91.186996
-21.825001 0.936261 95.017929
-54.375 0.936261 95.551949
68.025002 0.936261 78.614601
54.825001 0.936261 83.031097
49.575001 0.936261 82.958099
23.325001 0.936261 87.841797
-24.674999 0.936261 94.594299
-66.375 0.936261 95.076103
69.375 1.872602 79.823936
56.775002 1.872602 83.963089
52.875 1.872602 85.059402
27.375 1.872602 91.258888
-21.674999 1.872602 94.902725
-53.325001 1.872602 95.454994
67.574997 1.872602 78.7752
54.974998 1.872602 82.972702
49.275002 1.872602 83.031097
22.575001 1.872602 87.885597
-25.424999 1.872602 94.506699
-70.574997 1.872602 94.988503
68.925003 2.808943 80.035042
56.775002 2.808943 83.901031
52.575001 2.808943 85.168831
26.924999 2.808943 91.286125
-21.075001 2.808943 94.821899
-54.825001 2.808943 95.34243
66.675003 2.808943 78.921204
54.974998 2.808943 82.885101
48.974998 2.808943 83.053001
22.275 2.808943 87.907501
-24.674999 2.808943 94.375298
-69.525002 2.808943 94.842499
68.324997 3.7452841 80.215958
56.924999 3.7452841 83.823822
52.125 3.7452841 85.264565
26.475 3.7452841 91.28624
-20.775 3.7452841 94.71669
-54.375 3.7452841 95.222801
66.375 3.7452841 79.118301
55.125 3.7452841 82.688004
47.924999 3.7452841 83.1698
21.674999 3.7452841 87.907501
-23.174999 3.7452841 94.229301
-69.074997 3.7452841 94.747597
67.724998 4.6816249 80.39312
57.075001 4.6816249 83.770752
51.825001 4.6816249 85.332428
26.025 4.6816249 91.309509
-20.174999 4.6816249 94.632301
-53.174999 4.6816249 95.141273
65.925003 4.6816249 79.2351
55.424999 4.6816249 82.739098
48.075001 4.6816249 83.264702
21.525 4.6816249 87.922096
-23.025 4.6816249 94.127098
-69.224998 4.6816249 94.594299
67.275002 5.6179662 80.576561
57.224998 5.6179662 83.712036
51.375 5.6179662 85.427895
25.575001 5.6179662 91.340805
-19.725 5.6179662 94.5429
-53.025002 5.6179662 95.063133
65.175003 5.6179662 79.3592
55.424999 5.6179662 82.571198
48.075001 5.6179662 83.308502
20.924999 5.6179662 87.965897
-22.575001 5.6179662 94.017601
-70.425003 5.6179662 94.462898
66.375 6.554307 80.733681
57.375 6.554307 83.651321
50.924999 6.554307 85.509674
25.125 6.554307 91.38662
-19.275 6.554307 94.408424
-52.125 6.554307 94.952179
65.324997 6.554307 79.987
55.575001 6.554307 82.556602
47.174999 6.554307 83.374199
20.475 6.554307 88.031601
-21.975 6.554307 93.864304
-69.675003 6.554307 94.302299
57.525002 7.4906478 83.590668
50.474998 7.4906478 85.579254
24.525 7.4906478 91.433632
-18.674999 7.4906478 94.315941
-50.325001 7.4906478 94.880493
55.724998 7.4906478 82.505501
46.875 7.4906478 83.388802
19.275 7.4906478 88.148399
-21.975 7.4906478 93.776703
-70.574997 7.4906478 94.229301
57.674999 8.4269886 83.519913
50.174999 8.4269886 85.637215
23.775 8.4269886 91.473404
-18.525 8.4269886 94.225281
55.875 8.4269886 82.498199
45.974998 8.4269886 83.498299
19.575001 8.4269886 88.3601
-21.075001 8.4269886 93.608803
57.825001 9.3633299 83.442696
49.724998 9.3633299 85.718689
22.875 9.3633299 91.546829
-18.075001 9.3633299 94.098434
-50.625 9.3633299 94.65696
55.875 9.3633299 82.352203
46.125 9.3633299 83.5056
18.375 9.3633299 88.5718
-21.075001 9.3633299 93.499298
-70.574997 9.3633299 93.951897
82.724998 10.299671 73.264816
57.974998 10.299671 83.398804
49.275002 10.299671 85.774704
22.575001 10.299671 91.512856
-17.775 10.299671 93.987022
-49.575001 10.299671 94.572754
82.125 10.299671 72.978996
55.875 10.299671 82.169701
45.674999 10.299671 83.542099
17.174999 10.299671 88.849197
-21.075001 10.299671 93.389801
-69.525002 10.299671 93.798599
80.175003 11.236012 75.097374
58.125 11.236012 83.319206
48.825001 11.236012 85.827972
20.025 11.236012 91.335037
-17.475 11.236012 93.844879
-50.174999 11.236012 94.379745
76.875 11.236012 74.365997
56.174999 11.236012 82.1259
45.075001 11.236012 83.556702
15.825 11.236012 89.272598
-21.225 11.236012 93.229202
-70.574997 11.236012 93.6745
78.224998 12.172353 75.997719
58.125 12.172353 83.229904
48.525002 12.172353 85.881584
17.924999 12.172353 91.429909
-16.875 12.172353 93.739365
-50.625 12.172353 94.272873
74.625 12.172353 75.125198
56.325001 12.172353 82.111298
44.775002 12.172353 83.622398
14.925 12.172353 89.8274
-19.725 12.172353 93.0905
-70.574997 12.172353 93.462799
76.724998 13.108694 76.568405
58.275002 13.108694 83.128448
48.075001 13.108694 85.96917
14.925 13.108694 91.304604
-16.575001 13.108694 93.584991
-47.924999 13.108694 94.201363
73.425003 13.108694 75.585098
56.474998 13.108694 82.0821
44.474998 13.108694 83.585899
12.825 13.108694 90.7034
-20.475 13.108694 92.944504
-70.125 13.108694 93.346001
75.824997 14.045035 76.942215
58.424999 14.045035 83.091644
47.775002 14.045035 86.008278
22.575001 14.045035 91.32209
-16.125 14.045035 93.48674
-46.875 14.045035 94.079453
-73.425003 14.045035 93.396477
72.074997 14.045035 75.993896
56.474998 14.045035 81.972603
43.875 14.045035 83.622398
18.674999 14.045035 91.017303
-19.275 14.045035 92.805801
-69.675003 14.045035 93.170799
-83.025002 14.045035 88.126503
74.175003 14.981376 77.475235
58.424999 14.981376 82.992134
47.325001 14.981376 86.099815
22.275 14.981376 91.2985
-15.975 14.981376 93.365135
-53.625 14.981376 93.865166
71.025002 14.981376 76.351601
56.325001 14.981376 81.8339
42.974998 14.981376 83.615097
17.924999 14.981376 90.944298
-18.375 14.981376 92.645203
-84.675003 14.981376 86.995003
73.425003 15.917717 77.788567
58.575001 15.917717 82.956566
46.875 15.917717 86.126648
22.275 15.917717 91.264595
-15.525 15.917717 93.266441
-49.875 15.917717 93.832649
70.425003 15.917717 76.577904
56.474998 15.917717 81.819298
42.375 15.917717 83.666199
18.075001 15.917717 90.907799
-18.075001 15.917717 92.550301
-85.275002 15.917717 86.286903
72.525002 16.854057 78.048378
58.724998 16.854057 82.88884
46.424999 16.854057 86.18882
21.975 16.854057 91.18869
-15.075 16.854057 93.112885
-45.825001 16.854057 93.785042
-77.324997 16.854057 91.613686
69.525002 16.854057 76.745796
56.625 16.854057 81.636803
42.224998 16.854057 83.695396
20.174999 16.854057 90.900497
-17.924999 16.854057 92.382401
-75.375 16.854057 91.185204
-85.574997 16.854057 85.7248
71.775002 17.7904 78.249718
58.724998 17.7904 82.801125
46.125 17.7904 86.231468
21.975 17.7904 91.158249
-14.625 17.7904 92.977844
-49.275002 17.7904 93.612175
-75.824997 17.7904 92.163246
68.625 17.7904 76.9356
56.924999 17.7904 81.600304
41.775002 17.7904 83.688103
17.775 17.7904 90.812897
-17.625 17.7904 92.309402
-73.724998 17.7904 91.594002
-85.875 17.7904 85.3452
71.324997 18.72674 78.400322
58.875 18.72674 82.72599
45.674999 18.72674 86.277222
21.975 18.72674 91.05262
-14.325 18.72674 92.837982
-46.275002 18.72674 93.508583
68.324997 18.72674 77.0159
57.075001 18.72674 81.527298
41.325001 18.72674 83.637001
18.075001 18.72674 90.776398
-17.174999 18.72674 92.105003
-72.224998 18.72674 91.8787
70.724998 19.66308 78.542503
58.875 19.66308 82.618248
45.375 19.66308 86.274178
21.975 19.66308 91.009674
-13.725 19.66308 92.698181
-49.125 19.66308 93.357498
-73.875 19.66308 92.564018
67.875 19.66308 77.139999
56.924999 19.66308 81.337502
40.575001 19.66308 83.688103
17.775 19.66308 90.5793
-16.424999 19.66308 91.929802
-71.175003 19.66308 91.944397
-86.025002 19.66308 84.724701
70.425003 20.599422 78.643623
59.025002 20.599422 82.521904
44.924999 20.599422 86.294594
21.975 20.599422 90.918983
-13.275 20.599422 92.546318
-47.625 20.599422 93.220528
66.974998 20.599422 77.125397
57.075001 20.599422 81.2061
40.724998 20.599422 83.637001
17.025 20.599422 90.557404
-16.424999 20.599422 91.761902
-69.974998 20.599422 92.061203
69.974998 21.535763 78.703949
59.174999 21.535763 82.420815
44.474998 21.535763 86.323013
21.975 21.535763 90.842766
-12.975 21.535763 92.415535
-47.625 21.535763 93.088951
66.675003 21.535763 77.242203
57.375 21.535763 81.235298
39.974998 21.535763 83.666199
17.625 21.535763 90.499001
-16.275 21.535763 91.630501
-72.224998 21.535763 91.951698
69.525002 22.472103 78.79599
59.174999 22.472103 82.31691
44.025002 22.472103 86.340294
21.975 22.472103 90.778954
-12.525 22.472103 92.248085
-45.224998 22.472103 92.994614
66.224998 22.472103 77.300598
57.525002 22.472103 81.1623
39.825001 22.472103 83.615097
17.625 22.472103 90.447899
-15.675 22.472103 91.455299
-70.574997 22.472103 91.747299
69.074997 23.408445 78.861084
59.474998 23.408445 82.244797
43.575001 23.408445 86.337761
21.975 23.408445 90.673599
-12.225 23.408445 92.140228
-44.775002 23.408445 92.894615
65.775002 23.408445 77.359001
57.525002 23.408445 80.9506
39.674999 23.408445 83.651604
18.825001 23.408445 90.367599
-14.775 23.408445 91.258202
-71.324997 23.408445 91.623199
68.775002 24.344786 78.951477
59.474998 24.344786 82.090172
43.125 24.344786 86.387405
21.825001 24.344786 90.592545
-11.925 24.344786 91.971718
-47.025002 24.344786 92.708549
65.625 24.344786 77.3955
57.525002 24.344786 80.790001
39.075001 24.344786 83.615097
18.225 24.344786 90.250801
-14.775 24.344786 91.126801
-71.025002 24.344786 91.462601
68.324997 25.281128 78.990166
59.474998 25.281128 81.934845
42.825001 25.281128 86.401352
21.825001 25.281128 90.525002
-11.625 25.281128 91.835854
-44.924999 25.281128 92.606987
64.875 25.281128 77.461197
57.825001 25.281128 80.760803
38.474998 25.281128 83.600502
18.375 25.281128 90.1632
-15.075 25.281128 90.988098
-70.275002 25.281128 91.272797
67.875 26.217468 79.065323
59.325001 26.217468 81.702873
42.375 26.217468 86.383064
21.975 26.217468 90.472984
-11.025 26.217468 91.681122
-45.375 26.217468 92.479607
64.425003 26.217468 77.504997
57.825001 26.217468 80.607498
37.724998 26.217468 83.585899
17.625 26.217468 90.104797
-14.475 26.217468 90.842102
-71.324997 26.217468 91.119499
67.425003 27.153809 79.0867
42.075001 27.153809 86.415543
21.975 27.153809 90.362801
-10.575 27.153809 91.524963
-46.424999 27.153809 92.310799
64.275002 27.153809 77.578003
37.575001 27.153809 83.578598
19.275 27.153809 90.009903
-12.975 27.153809 90.652298
-69.974998 27.153809 90.900497
67.125 28.090151 79.170822
41.775002 28.090151 86.371674
21.975 28.090151 90.275169
-10.125 28.090151 91.367706
-44.474998 28.090151 92.208969
63.674999 28.090151 77.621803
37.275002 28.090151 83.512901
17.775 28.090151 89.915001
-13.875 28.090151 90.462502
-71.025002 28.090151 90.754501
66.675003 29.026491 79.204185
41.174999 29.026491 86.388191
21.975 29.026491 90.154434
-9.8249998 29.026491 91.249207
-44.174999 29.026491 92.057793
63.075001 29.026491 77.621803
36.825001 29.026491 83.490997
18.825001 29.026491 89.768997
-12.825 29.026491 90.294601
-70.425003 29.026491 90.557404
66.224998 29.962831 79.264839
40.875 29.962831 86.358032
21.825001 29.962831 90.062843
-9.5249996 29.962831 91.045708
-44.625 29.962831 91.91909
62.775002 29.962831 77.5634
36.075001 29.962831 83.374199
18.975 29.962831 89.674103
-12.825 29.962831 90.112099
-70.574997 29.962831 90.367599
65.775002 30.899174 79.284485
40.424999 30.899174 86.295166
-8.7749996 30.899174 90.902245
-47.025002 30.899174 91.711761
62.325001 30.899174 77.607201
36.075001 30.899174 83.388802
-11.475 30.899174 89.966103
-71.925003 30.899174 90.170502
65.474998 31.835514 79.353233
40.125 31.835514 86.285538
21.825001 31.835514 89.850861
-8.4750004 31.835514 90.796638
-44.025002 31.835514 91.636658
62.174999 31.835514 77.651001
35.625 31.835514 83.352303
18.975 31.835514 89.462402
-11.325 31.835514 89.842003
-70.425003 31.835514 89.9515
64.875 32.771854 79.378662
39.674999 32.771854 86.290939
-8.3249998 32.771854 90.653175
-46.724998 32.771854 91.435097
61.275002 32.771854 77.7313
34.424999 32.771854 83.315804
-12.075 32.771854 89.644897
-71.025002 32.771854 89.7836
64.574997 33.708195 79.464012
39.224998 33.708195 86.319305
21.825001 33.708195 89.66571
-6.9749999 33.708195 90.502548
61.275002 33.708195 77.702103
34.575001 33.708195 83.250099
18.674999 33.708195 89.236099
-10.875 33.708195 89.411301
90.074997 34.644539 65.604111
64.125 34.644539 79.488014
38.775002 34.644539 86.285698
21.825001 34.644539 89.613152
-7.2750001 34.644539 90.355324
88.574997 34.644539 65.262901
60.974998 34.644539 77.804298
34.275002 34.644539 83.220901
18.375 34.644539 89.148499
-10.875 34.644539 89.214203
90.824997 35.580879 64.997101
63.825001 35.580879 79.540245
38.325001 35.580879 86.279572
21.975 35.580879 89.472
-6.5250001 35.580879 90.176392
-44.625 35.580879 91.050789
89.175003 35.580879 64.518303
60.674999 35.580879 77.804298
33.974998 35.580879 83.177101
18.075001 35.580879 88.966003
-10.725 35.580879 89.097397
-70.875 35.580879 89.1558
83.025002 36.51722 71.594452
63.375 36.51722 79.541473
37.875 36.51722 86.213615
21.674999 36.51722 89.332893
-6.5250001 36.51722 90.043297
81.375 36.51722 71.044502
59.775002 36.51722 77.694801
32.924999 36.51722 83.0895
17.924999 36.51722 88.871101
-10.425 36.51722 88.878403
81.074997 37.45356 72.723831
63.075001 37.45356 79.546005
37.575001 37.45356 86.176369
21.825001 37.45356 89.232727
-6.2249999 37.45356 89.88855
-44.025002 37.45356 90.731209
78.525002 37.45356 71.767197
59.474998 37.45356 77.709396
32.474998 37.45356 82.994598
18.225 37.45356 88.768898
-9.2250004 37.45356 88.630203
-71.625 37.45356 88.725098
79.724998 38.3899 73.358429
62.625 38.3899 79.561058
37.125 38.3899 86.133743
21.975 38.3899 89.110245
-5.7750001 38.3899 89.720299
77.175003 38.3899 72.292801
58.875 38.3899 77.702103
32.474998 38.3899 82.980003
18.075001 38.3899 88.600998
-9.6750002 38.3899 88.542603
78.525002 39.326241 73.768677
62.174999 39.326241 79.597893
36.674999 39.326241 86.094933
21.825001 39.326241 88.980194
-5.3249998 39.326241 89.584633
76.125 39.326241 72.672401
58.875 39.326241 77.723999
32.325001 39.326241 82.943497
17.625 39.326241 88.506104
-10.275 39.326241 88.389297
77.474998 40.262585 74.13929
61.724998 40.262585 79.619576
36.375 40.262585 86.068321
-4.875 40.262585 89.391708
75.224998 40.262585 72.978996
57.974998 40.262585 77.665604
31.875 40.262585 82.834
-8.3249998 40.262585 88.308998
76.574997 41.198925 74.428421
61.724998 41.198925 79.596764
35.924999 41.198925 86.034615
-4.125 41.198925 89.19046
74.175003 41.198925 73.344002
57.825001 41.198925 77.636398
31.275 41.198925 82.848602
-8.1750002 41.198925 88.272499
75.675003 42.135265 74.65274
61.724998 42.135265 79.433014
35.625 42.135265 86.008621
-3.675 42.135265 89.0886
-42.825001 42.135265 89.987274
73.275002 42.135265 73.475403
57.525002 42.135265 77.629097
30.525 42.135265 82.782898
-8.0249996 42.135265 88.1922
-72.675003 42.135265 86.827103
75.074997 43.071606 74.802193
61.875 43.071606 79.288033
35.025002 43.071606 85.94445
21.525 43.071606 88.558754
-2.7750001 43.071606 88.876953
-40.875 43.071606 89.812042
72.675003 43.071606 73.679802
56.924999 43.071606 77.592598
30.375 43.071606 82.658798
17.625 43.071606 87.980499
-6.8249998 43.071606 88.155701
-71.025002 43.071606 87.016899
74.324997 44.007946 74.999245
62.025002 44.007946 79.128632
58.875 44.007946 78.5756
34.724998 44.007946 85.910957
-2.0250001 44.007946 88.712067
-41.775002 44.007946 89.651207
72.224998 44.007946 73.789299
60.224998 44.007946 78.110901
56.474998 44.007946 77.585297
29.924999 44.007946 82.6661
-8.0249996 44.007946 88.221397
-71.324997 44.007946 87.162903
73.875 44.944286 75.09066
62.025002 44.944286 78.965462
58.575001 44.944286 78.862366
34.275002 44.944286 85.848938
20.924999 44.944286 88.166817
-2.325 44.944286 88.595642
-42.075001 44.944286 89.497337
71.625 44.944286 73.884201
60.075001 44.944286 77.964897
55.875 44.944286 77.570702
29.625 44.944286 82.578499
16.275 44.944286 87.724998
-7.7249999 44.944286 88.184898
-70.875 44.944286 86.987701
73.275002 45.88063 75.178818
62.174999 45.88063 78.810463
58.424999 45.88063 79.172318
33.974998 45.88063 85.790398
20.475 45.88063 87.978317
-3.2249999 45.88063 88.476715
71.025002 45.88063 73.993698
60.075001 45.88063 77.716698
55.575001 45.88063 77.556099
29.475 45.88063 82.476303
16.275 45.88063 87.652
-7.2750001 45.88063 88.2798
72.675003 46.816971 75.240021
62.325001 46.816971 78.645638
58.575001 46.816971 79.580307
33.525002 46.816971 85.720467
-39.825001 46.816971 89.174667
70.574997 46.816971 74.022903
60.525002 46.816971 77.614502
55.275002 46.816971 77.497704
28.275 46.816971 82.403297
-71.775002 46.816971 86.484001
71.775002 47.753311 75.344337
62.474998 47.753311 78.506218
58.424999 47.753311 79.639671
33.075001 47.753311 85.653915
19.725 47.753311 87.553879
70.724998 47.753311 74.650703
60.525002 47.753311 77.446602
54.825001 47.753311 77.534203
28.424999 47.753311 82.308403
15.225 47.753311 87.338097
62.474998 48.689651 78.370644
58.125 48.689651 79.67878
32.625 48.689651 85.585968
18.225 48.689651 87.320862
60.674999 48.689651 77.315201
54.075001 48.689651 77.468498
27.825001 48.689651 82.279198
14.925 48.689651 87.140999
62.474998 49.625992 78.22052
57.674999 49.625992 79.689392
32.174999 49.625992 85.580673
-39.375 49.625992 88.684082
60.825001 49.625992 77.176498
53.775002 49.625992 77.402802
27.375 49.625992 82.228104
-72.824997 49.625992 85.695602
62.775002 50.562332 78.033913
57.375 50.562332 79.648209
31.725 50.562332 85.501152
60.825001 50.562332 76.8918
53.325001 50.562332 77.359001
26.475 50.562332 82.147797
62.625 51.498676 77.889587
56.924999 51.498676 79.633133
31.424999 51.498676 85.447891
61.125 51.498676 76.804199
52.875 51.498676 77.359001
25.875 51.498676 82.074799
62.924999 52.435017 77.703339
56.474998 52.435017 79.650665
30.975 52.435017 85.368568
61.125 52.435017 76.6436
52.575001 52.435017 77.315201
26.174999 52.435017 81.921501
63.075001 53.371357 77.55088
56.174999 53.371357 79.617645
30.525 53.371357 85.326347
-26.625 53.371357 87.909081
61.125 53.371357 76.329697
52.275002 53.371357 77.249496
26.025 53.371357 81.870399
-29.775 53.371357 87.615501
63.075001 54.307697 77.375778
55.724998 54.307697 79.580704
30.225 54.307697 85.237923
-24.375 54.307697 87.765533
61.424999 54.307697 76.322403
51.974998 54.307697 77.205704
24.975 54.307697 81.797401
-29.625 54.307697 87.432999
63.375 55.244038 77.201813
55.424999 55.244038 79.546288
29.775 55.244038 85.170387
-25.275 55.244038 87.56749
61.275002 55.244038 75.972
51.075001 55.244038 77.110802
24.674999 55.244038 81.7463
-29.475 55.244038 87.235901
63.375 56.180382 77.051003
54.974998 56.180382 79.524902
29.475 56.180382 85.07431
-25.575001 56.180382 87.392464
61.575001 56.180382 75.950104
50.924999 56.180382 77.052399
24.375 56.180382 81.593002
-30.975 56.180382 87.0242
63.375 57.116722 76.867996
54.525002 57.116722 79.46563
29.025 57.116722 85.004829
-24.825001 57.116722 87.259514
61.575001 57.116722 75.796799
50.174999 57.116722 77.008598
23.775 57.116722 81.461601
-28.725 57.116722 86.834396
63.674999 58.053062 76.680832
54.075001 58.053062 79.459129
28.424999 58.053062 84.938202
-24.225 58.053062 87.062149
61.724998 58.053062 75.614304
50.025002 58.053062 76.957497
23.475 58.053062 81.439697
-30.525 58.053062 86.615402
63.674999 58.989403 76.494957
53.775002 58.989403 79.443237
28.125 58.989403 84.879166
-22.725 58.989403 86.926399
61.724998 58.989403 75.439102
49.424999 58.989403 76.906403
23.025 58.989403 81.359398
-27.825001 58.989403 86.432899
63.825001 59.925743 76.323616
53.325001 59.925743 79.413536
27.674999 59.925743 84.830727
-22.575001 59.925743 86.726074
61.724998 59.925743 75.1763
49.275002 59.925743 76.848
21.525 59.925743 81.271797
-27.674999 59.925743 86.264999
63.825001 60.862083 76.140343
53.025002 60.862083 79.362366
27.225 60.862083 84.741493
-22.424999 60.862083 86.611809
61.875 60.862083 75.0084
48.825001 60.862083 76.760399
22.275 60.862083 81.176903
-26.924999 60.862083 86.111702
63.825001 61.798428 75.973114
52.575001 61.798428 79.287659
26.775 61.798428 84.67778
-13.575 61.798428 86.549789
62.174999 61.798428 74.913498
48.224998 61.798428 76.694702
21.375 61.798428 81.060097
-26.325001 61.798428 85.878098
80.324997 62.734768 69.292465
63.974998 62.734768 75.752327
52.125 62.734768 79.25322
26.475 62.734768 84.574074
-16.275 62.734768 86.324684
76.875 62.734768 68.796097
62.025002 62.734768 74.6726
48.224998 62.734768 76.636299
20.475 62.734768 81.016296
-26.325001 62.734768 85.688301
78.074997 63.671108 70.146919
64.125 63.671108 75.57856
51.674999 63.671108 79.197426
26.025 63.671108 84.519211
-21.975 63.671108 86.099037
74.925003 63.671108 69.336304
62.174999 63.671108 74.482803
47.025002 63.671108 76.5998
19.875 63.671108 80.884903
-26.025 63.671108 85.403603
76.574997 64.607452 70.628052
64.125 64.607452 75.39048
51.375 64.607452 79.134018
25.575001 64.607452 84.427429
-21.674999 64.607452 85.8731
73.275002 64.607452 69.7743
62.174999 64.607452 74.176201
46.575001 64.607452 76.483002
19.875 64.607452 80.804604
-27.075001 64.607452 85.242996
75.224998 65.543793 71.044357
63.974998 65.543793 75.228973
51.075001 65.543793 79.091866
25.275 65.543793 84.355095
-18.825001 65.543793 85.794014
71.925003 65.543793 70.058998
62.474998 65.543793 74.103203
46.724998 65.543793 76.410004
20.025 65.543793 80.665901
-26.775 65.543793 84.994797
95.625 66.480133 54.707279
71.775002 66.480133 70.724068
63.525002 66.480133 75.000313
-26.475 66.480133 84.895935
94.275002 66.480133 54.429699
70.425003 66.480133 70.219597
62.625 66.480133 73.9645
-86.324997 66.480133 72.051903
73.125 67.416473 71.584869
64.574997 67.416473 74.846634
50.174999 67.416473 78.988091
24.525 67.416473 84.218185
-16.725 67.416473 85.457481
69.974998 67.416473 70.409401
62.625 67.416473 73.650597
45.825001 67.416473 76.271301
19.424999 67.416473 80.476097
-26.475 67.416473 84.680901
72.224998 68.352814 71.717705
49.724998 68.352814 78.931358
24.075001 68.352814 84.106918
-18.525 68.352814 85.277435
68.474998 68.352814 70.431297
45.075001 68.352814 76.205597
18.375 68.352814 80.417702
-25.275 68.352814 84.4692
71.474998 69.289154 71.803764
64.125 69.289154 74.170242
49.424999 69.289154 78.894707
23.625 69.289154 84.04351
-18.075001 69.289154 85.116066
-30.674999 69.289154 85.114731
67.875 69.289154 70.4459
62.775002 69.289154 73.285599
44.775002 69.289154 76.059601
17.625 69.289154 80.308197
-26.174999 69.289154 84.293999
-74.324997 69.289154 79.118301
70.875 70.225494 71.864082
48.825001 70.225494 78.819771
23.025 70.225494 83.949799
-16.725 70.225494 84.970146
-30.674999 70.225494 84.941406
67.275002 70.225494 70.482399
44.474998 70.225494 76.0158
17.325001 70.225494 80.227898
-25.875 70.225494 84.0896
-73.275002 70.225494 79.242401
70.275002 71.161835 71.903214
48.525002 71.161835 78.767387
22.725 71.161835 83.837608
-17.625 71.161835 84.794319
66.525002 71.161835 70.482399
44.025002 71.161835 75.993896
17.625 71.161835 80.133003
-25.725 71.161835 83.907097
69.824997 72.098175 71.939735
48.075001 72.098175 78.706985
22.275 72.098175 83.757004
-16.725 72.098175 84.603722
66.525002 72.098175 70.4459
43.875 72.098175 75.869797
16.725 72.098175 80.169502
-22.875 72.098175 83.7173
69.375 73.034515 71.895302
47.775002 73.034515 78.661018
21.674999 73.034515 83.647316
-17.174999 73.034515 84.44265
66.074997 73.034515 70.416702
43.275002 73.034515 75.782204
16.424999 73.034515 80.140297
-23.475 73.034515 83.483704
69.074997 73.970856 71.873817
47.325001 73.970856 78.592125
21.525 73.970856 83.540123
-17.924999 73.970856 84.273659
65.625 73.970856 70.394798
42.974998 73.970856 75.709198
15.825 73.970856 80.184097
-21.975 73.970856 83.272003
68.625 74.907204 71.854286
47.025002 74.907204 78.507156
21.375 74.907204 83.401878
-16.725 74.907204 84.108055
65.175003 74.907204 70.256104
42.224998 74.907204 75.614304
