# .PCD v0.7 - Point Cloud Data file format
VERSION 0.7
FIELDS x y z
SIZE 4 4 4
TYPE F F F
COUNT 1 1 1
WIDTH 1459
HEIGHT 1
VIEWPOINT 0 0 0 1 0 0 0
POINTS 1459
DATA ascii
-0.044025 0.015918188 0.0101975
-0.044174999 0.015918188 0.0101975
-0.044325002 0.015918188 0.0101756
-0.044475 0.015918188 0.0101975
-0.044624999 0.015918188 0.010234
-0.044775002 0.015918188 0.0102048
-0.044925001 0.015918188 0.0101829
-0.045074999 0.015918188 0.0101902
-0.045224998 0.015918188 0.0102486
-0.045375001 0.015918188 0.010234
-0.045524999 0.015918188 0.0102121
-0.045674998 0.015918188 0.0102413
-0.045825001 0.015918188 0.0101975
-0.045975 0.015918188 0.010161
-0.046124998 0.015918188 0.0101829
-0.046275001 0.015918188 0.0101975
-0.046425 0.015918188 0.0101829
-0.046574999 0.015918188 0.0101975
-0.046725001 0.015918188 0.0102121
-0.046875 0.015918188 0.0102486
-0.047024999 0.015918188 0.0101975
-0.047175001 0.015918188 -inf
-0.047325 0.015918188 -inf
-0.047474999 0.015918188 -inf
-0.047625002 0.015918188 -inf
-0.047775 0.015918188 -inf
-0.047924999 0.015918188 -inf
-0.048075002 0.015918188 -inf
-0.048225001 0.015918188 -inf
-0.048374999 0.015918188 -inf
-0.048525002 0.015918188 -inf
-0.048675001 0.015918188 -inf
-0.048824999 0.015918188 -inf
-0.048974998 0.015918188 -inf
-0.049125001 0.015918188 -inf
-0.049275 0.015918188 -inf
-0.049424998 0.015918188 -inf
-0.049575001 0.015918188 -inf
-0.049725 0.015918188 -inf
-0.049874999 0.015918188 -inf
0.049874999 0.016854528 -inf
0.049725 0.016854528 -inf
0.049575001 0.016854528 -inf
0.049424998 0.016854528 -inf
0.049275 0.016854528 -inf
0.049125001 0.016854528 -inf
0.048974998 0.016854528 -inf
0.048824999 0.016854528 -inf
0.048675001 0.016854528 -inf
0.048525002 0.016854528 -inf
0.048374999 0.016854528 -inf
0.048225001 0.016854528 -inf
0.048075002 0.016854528 -inf
0.047924999 0.016854528 -inf
0.047775 0.016854528 -inf
0.047625002 0.016854528 -inf
0.047474999 0.016854528 -inf
0.047325 0.016854528 -inf
0.047175001 0.016854528 -inf
0.047024999 0.016854528 -inf
0.046875 0.016854528 -inf
0.046725001 0.016854528 -inf
0.046574999 0.016854528 0.0103581
0.046425 0.016854528 0.0103946
0.046275001 0.016854528 0.0103581
0.046124998 0.016854528 0.0103143
0.045975 0.016854528 0.0102997
0.045825001 0.016854528 0.0103216
0.045674998 0.016854528 0.0102924
0.045524999 0.016854528 0.0103216
0.045375001 0.016854528 0.0103216
0.045224998 0.016854528 0.0103289
0.045074999 0.016854528 0.0103654
0.044925001 0.016854528 0.0103143
0.044775002 0.016854528 0.0102924
0.044624999 0.016854528 0.0102924
0.044475 0.016854528 0.0102705
0.044325002 0.016854528 0.0102924
0.044174999 0.016854528 0.0103508
0.044025 0.016854528 0.0103216
0.043875001 0.016854528 0.0102997
0.043724999 0.016854528 0.0103216
0.043575 0.016854528 0.0102851
0.043425001 0.016854528 0.0102924
0.043274999 0.016854528 0.0102705
0.043125 0.016854528 0.0102997
0.042975001 0.016854528 0.0103289
0.042824998 0.016854528 0.0103508
0.042675 0.016854528 0.0103435
0.042525001 0.016854528 0.0102997
0.042374998 0.016854528 0.0102997
0.042225 0.016854528 0.0103143
0.042075001 0.016854528 0.0103435
0.041924998 0.016854528 0.0102851
0.041774999 0.016854528 0.0102997
0.041625001 0.016854528 0.010307
0.041475002 0.016854528 0.0103289
0.041324999 0.016854528 0.0103362
0.041175 0.016854528 0.0102997
0.041025002 0.016854528 0.0102851
0.040874999 0.016854528 0.0102924
0.040725 0.016854528 0.0102997
0.040575001 0.016854528 0.0103289
0.040424999 0.016854528 0.0102851
0.040275 0.016854528 0.0102559
0.040125001 0.016854528 0.0102924
0.039974999 0.016854528 0.0102705
0.039825 0.016854528 0.0103143
0.039675001 0.016854528 0.0103289
0.039524999 0.016854528 0.0103143
0.039375 0.016854528 0.0102559
0.039225001 0.016854528 0.010234
0.039074998 0.016854528 0.0102705
0.038925 0.016854528 0.0103216
0.038775001 0.016854528 0.0103508
0.038624998 0.016854528 0.0103216
0.038474999 0.016854528 0.0102924
0.038325001 0.016854528 0.0103216
0.038175002 0.016854528 0.0103362
0.038024999 0.016854528 0.0103289
0.037875 0.016854528 0.0103216
0.037725002 0.016854528 0.0103143
0.037574999 0.016854528 0.0103143
0.037425 0.016854528 0.0103143
0.037275001 0.016854528 0.0102924
0.037124999 0.016854528 0.0102924
0.036975 0.016854528 0.0102997
0.036825001 0.016854528 0.0103143
0.036674999 0.016854528 0.0102851
0.036525 0.016854528 0.0102851
0.036375001 0.016854528 0.0102924
0.036224999 0.016854528 0.0102997
0.036075 0.016854528 0.0102997
0.035925001 0.016854528 0.0103143
0.035774998 0.016854528 0.0103362
0.035625 0.016854528 0.0103435
0.035475001 0.016854528 0.0103216
0.035324998 0.016854528 0.010307
0.035174999 0.016854528 0.0102924
0.035025001 0.016854528 0.0102924
0.034875002 0.016854528 0.0103508
0.034724999 0.016854528 0.0103508
0.034575 0.016854528 0.0103727
0.034425002 0.016854528 0.0103435
0.034274999 0.016854528 0.0102997
0.034125 0.016854528 0.0102924
0.033975001 0.016854528 0.0103143
0.033824999 0.016854528 0.0103435
0.033675 0.016854528 0.0103435
0.033525001 0.016854528 0.0102705
0.033374999 0.016854528 0.0102997
0.033225 0.016854528 0.01038
0.033075001 0.016854528 0.01038
0.032924999 0.016854528 0.0102997
0.032775 0.016854528 0.0103216
0.032625001 0.016854528 0.0103289
0.032474998 0.016854528 0.0103362
0.032325 0.016854528 0.0103508
0.032175001 0.016854528 0.0103216
0.032024998 0.016854528 0.0102924
0.031874999 0.016854528 0.0102997
0.031725001 0.016854528 0.0102778
0.031575002 0.016854528 0.0102705
0.031424999 0.016854528 0.0103216
0.031275 0.016854528 0.0103289
0.031125 0.016854528 0.0103727
0.030974999 0.016854528 0.0103143
0.030825 0.016854528 0.0103289
0.030675 0.016854528 0.0102997
0.030525001 0.016854528 0.0102486
0.030375 0.016854528 0.0102778
0.030224999 0.016854528 0.0103216
0.030075001 0.016854528 0.010307
0.029925 0.016854528 0.0102924
0.029774999 0.016854528 0.0102851
0.029625 0.016854528 0.0102778
0.029475 0.016854528 0.0102851
0.029324999 0.016854528 0.0102705
0.029175 0.016854528 0.0102632
0.029025 0.016854528 0.0102778
0.028875001 0.016854528 0.0102851
0.028725 0.016854528 0.0102705
0.028574999 0.016854528 0.0102778
0.028425001 0.016854528 0.0102924
0.028275 0.016854528 0.0102924
0.028124999 0.016854528 0.0102705
0.027975 0.016854528 0.0102632
0.027825 0.016854528 0.0102705
0.027674999 0.016854528 0.010234
0.027525 0.016854528 0.0102267
0.027375 0.016854528 0.0101975
0.027225001 0.016854528 0.010234
0.027075 0.016854528 0.0102924
0.026924999 0.016854528 0.0103143
0.026775001 0.016854528 0.0102851
0.026625 0.016854528 0.0102559
0.026474999 0.016854528 0.0102705
0.026325 0.016854528 0.0102997
0.026175 0.016854528 0.0102486
0.026024999 0.016854528 0.010307
0.025875 0.016854528 0.0102851
0.025725 0.016854528 0.0102778
0.025575001 0.016854528 0.0103216
0.025425 0.016854528 0.0103435
0.025274999 0.016854528 0.0103362
0.025125001 0.016854528 0.0102997
0.024975 0.016854528 0.0102559
0.024824999 0.016854528 0.0102924
0.024675 0.016854528 0.0102851
0.024525 0.016854528 0.0102413
0.024374999 0.016854528 0.0102997
0.024225 0.016854528 0.0103143
0.024075 0.016854528 0.0103143
0.023925001 0.016854528 0.0102997
0.023775 0.016854528 0.0102778
0.023624999 0.016854528 0.0102851
0.023475001 0.016854528 0.0102924
0.023325 0.016854528 0.0103289
0.023174999 0.016854528 0.0103435
0.023025 0.016854528 0.0103143
0.022875 0.016854528 0.0103289
0.022724999 0.016854528 0.0103508
0.022575 0.016854528 0.0103362
0.022425 0.016854528 0.0103435
0.022275001 0.016854528 0.0103435
0.022125 0.016854528 0.0103362
0.021974999 0.016854528 0.0103362
0.021825001 0.016854528 0.0103143
0.021675 0.016854528 0.0102778
0.021524999 0.016854528 0.0102632
0.021375 0.016854528 0.0102778
0.021225 0.016854528 0.0103143
0.021074999 0.016854528 0.0102851
0.020925 0.016854528 0.0102924
0.020775 0.016854528 0.0102851
0.020625001 0.016854528 0.010307
0.020475 0.016854528 0.010307
0.020324999 0.016854528 0.0102778
0.020175001 0.016854528 0.0102997
0.020025 0.016854528 0.0102997
0.019874999 0.016854528 0.010307
0.019725 0.016854528 0.0102632
0.019575 0.016854528 0.0102851
0.019424999 0.016854528 0.0103289
0.019275 0.016854528 0.0103289
0.019125 0.016854528 0.0102997
0.018975001 0.016854528 0.0102851
0.018825 0.016854528 0.0102778
0.018674999 0.016854528 0.0102778
0.018525001 0.016854528 0.0102632
0.018375 0.016854528 0.0102705
0.018224999 0.016854528 0.0102997
0.018075 0.016854528 0.0102924
0.017925 0.016854528 0.010234
0.017774999 0.016854528 0.0102413
0.017625 0.016854528 0.0102851
0.017475 0.016854528 0.0102924
0.017325001 0.016854528 0.010307
0.017175 0.016854528 0.0103216
0.017024999 0.016854528 0.0102924
0.016875001 0.016854528 0.0102924
0.016725 0.016854528 0.0103143
0.016574999 0.016854528 0.0102778
0.016425001 0.016854528 0.0102559
0.016275 0.016854528 0.0102924
0.016124999 0.016854528 0.0103289
0.015975 0.016854528 0.0103289
0.015825 0.016854528 0.0103216
0.015675001 0.016854528 0.0102997
0.015525 0.016854528 0.0102705
0.015375 0.016854528 0.0102559
0.015225 0.016854528 0.0102632
0.015075 0.016854528 0.0103143
0.014925 0.016854528 0.0103508
0.014775 0.016854528 0.0103581
0.014625 0.016854528 0.0103143
0.014475 0.016854528 0.0103216
0.014325 0.016854528 0.0103289
0.014175 0.016854528 0.0102997
0.014025 0.016854528 0.010307
0.013875 0.016854528 0.010307
0.013725 0.016854528 0.0102924
0.013575 0.016854528 0.0102924
0.013425 0.016854528 0.0102851
0.013275 0.016854528 0.0102705
0.013125 0.016854528 0.010307
0.012975 0.016854528 0.0103581
0.012825 0.016854528 0.0103289
0.012675 0.016854528 0.0102924
0.012525 0.016854528 0.010307
0.012375 0.016854528 0.0102413
0.012225 0.016854528 0.0102705
0.012075 0.016854528 0.0102997
0.011925 0.016854528 0.0102997
0.011775 0.016854528 0.0102997
0.011625 0.016854528 0.0102778
0.011475 0.016854528 0.0102632
0.011325 0.016854528 0.0102705
0.011175 0.016854528 0.0102048
0.011025 0.016854528 0.0102486
0.010875 0.016854528 0.0103143
0.010725 0.016854528 0.010307
0.010575 0.016854528 0.0102924
0.010425 0.016854528 0.0102851
0.010275 0.016854528 0.0102778
0.010125 0.016854528 0.0102997
0.0099750003 0.016854528 0.0103362
0.0098249996 0.016854528 0.0103216
0.0096749999 0.016854528 0.0102851
0.0095250001 0.016854528 0.0102778
0.0093750004 0.016854528 0.0103216
0.0092249997 0.016854528 0.0103143
0.009075 0.016854528 0.0103362
0.0089250002 0.016854528 0.0103289
0.0087750005 0.016854528 0.010307
0.0086249998 0.016854528 0.0102924
0.008475 0.016854528 0.0103143
0.0083250003 0.016854528 0.0103289
0.0081749996 0.016854528 0.0102997
0.0080249999 0.016854528 0.0102486
0.0078750001 0.016854528 0.0102705
0.0077249999 0.016854528 0.0102705
0.0075750002 0.016854528 0.0102924
0.007425 0.016854528 0.0102997
0.0072750002 0.016854528 0.0102924
0.007125 0.016854528 0.0102997
0.0069749998 0.016854528 0.010307
0.006825 0.016854528 0.010307
0.0066749998 0.016854528 0.0102778
0.0065250001 0.016854528 0.0103216
0.0063749999 0.016854528 0.0103143
0.0062250001 0.016854528 0.0103508
0.0060749999 0.016854528 0.0103435
0.0059250002 0.016854528 0.0102997
0.005775 0.016854528 0.0102997
0.0056250002 0.016854528 0.0103143
0.005475 0.016854528 0.0103216
0.0053249998 0.016854528 0.0103216
0.0051750001 0.016854528 0.0103508
0.0050249998 0.016854528 0.0103143
0.0048750001 0.016854528 0.0102851
0.0047249999 0.016854528 0.0102705
0.0045750001 0.016854528 0.010307
0.0044249999 0.016854528 0.0102851
0.0042750002 0.016854528 0.0102559
0.004125 0.016854528 0.0102486
0.0039750002 0.016854528 0.0102632
0.003825 0.016854528 0.0102851
0.003675 0.016854528 0.0102851
0.0035250001 0.016854528 0.0102997
0.0033750001 0.016854528 0.0102924
0.0032250001 0.016854528 0.010234
0.0030749999 0.016854528 0.0103289
0.0029249999 0.016854528 0.0102778
0.0027749999 0.016854528 0.0102924
0.002625 0.016854528 0.010307
0.002475 0.016854528 0.0102924
0.002325 0.016854528 0.010307
0.002175 0.016854528 0.0103435
0.0020250001 0.016854528 0.0103216
0.001875 0.016854528 0.0103143
0.001725 0.016854528 0.0102997
0.001575 0.016854528 0.0103289
0.001425 0.016854528 0.0103727
0.001275 0.016854528 0.0102924
0.001125 0.016854528 0.0103362
0.00097499997 0.016854528 0.0103289
0.000825 0.016854528 0.0103654
0.00067500002 0.016854528 0.0103727
0.00052499998 0.016854528 0.010307
0.000375 0.016854528 0.0102851
0.000225 0.016854528 0.0103143
7.5000004e-05 0.016854528 0.0102851
-7.5000004e-05 0.016854528 0.0102632
-0.000225 0.016854528 0.0102705
-0.000375 0.016854528 0.0102413
-0.00052499998 0.016854528 0.0102267
-0.00067500002 0.016854528 0.0102632
-0.000825 0.016854528 0.0102705
-0.00097499997 0.016854528 0.0102632
-0.001125 0.016854528 0.0102632
-0.001275 0.016854528 0.0102559
-0.001425 0.016854528 0.0102705
-0.001575 0.016854528 0.0102778
-0.001725 0.016854528 0.0102924
-0.001875 0.016854528 0.0102851
-0.0020250001 0.016854528 0.010234
-0.002175 0.016854528 0.0102121
-0.002325 0.016854528 0.0102997
-0.002475 0.016854528 0.0102924
-0.002625 0.016854528 0.0102997
-0.0027749999 0.016854528 0.0102997
-0.0029249999 0.016854528 0.0102997
-0.0030749999 0.016854528 0.0103216
-0.0032250001 0.016854528 0.010307
-0.0033750001 0.016854528 0.0102559
-0.0035250001 0.016854528 0.0102705
-0.003675 0.016854528 0.010234
-0.003825 0.016854528 0.0102632
-0.0039750002 0.016854528 0.0102851
-0.004125 0.016854528 0.0102997
-0.0042750002 0.016854528 0.010307
-0.0044249999 0.016854528 0.010307
-0.0045750001 0.016854528 0.0102851
-0.0047249999 0.016854528 0.0102705
-0.0048750001 0.016854528 0.0102559
-0.0050249998 0.016854528 0.010234
-0.0051750001 0.016854528 0.0102194
-0.0053249998 0.016854528 0.0102778
-0.005475 0.016854528 0.0102486
-0.0056250002 0.016854528 0.0102486
-0.005775 0.016854528 0.0102413
-0.0059250002 0.016854528 0.0102559
-0.0060749999 0.016854528 0.0103289
-0.0062250001 0.016854528 0.0103216
-0.0063749999 0.016854528 0.0102778
-0.0065250001 0.016854528 0.0102705
-0.0066749998 0.016854528 0.0102632
-0.006825 0.016854528 0.0102559
-0.0069749998 0.016854528 0.0103362
-0.007125 0.016854528 0.0102705
-0.0072750002 0.016854528 0.010307
-0.007425 0.016854528 0.010307
-0.0075750002 0.016854528 0.0102851
-0.0077249999 0.016854528 0.0103362
-0.0078750001 0.016854528 0.0103216
-0.0080249999 0.016854528 0.0102778
-0.0081749996 0.016854528 0.0102924
-0.0083250003 0.016854528 0.0102559
-0.008475 0.016854528 0.0103435
-0.0086249998 0.016854528 0.0103654
-0.0087750005 0.016854528 0.010234
-0.0089250002 0.016854528 0.0102413
-0.009075 0.016854528 0.0102267
-0.0092249997 0.016854528 0.0102632
-0.0093750004 0.016854528 0.0102924
-0.0095250001 0.016854528 0.0102997
-0.0096749999 0.016854528 0.010307
-0.0098249996 0.016854528 0.010307
-0.0099750003 0.016854528 0.0103289
-0.010125 0.016854528 0.0102851
-0.010275 0.016854528 0.0102705
-0.010425 0.016854528 0.0102705
-0.010575 0.016854528 0.0102924
-0.010725 0.016854528 0.0103143
-0.010875 0.016854528 0.0102778
-0.011025 0.016854528 0.0102486
-0.011175 0.016854528 0.0102851
-0.011325 0.016854528 0.0103216
-0.011475 0.016854528 0.0102705
-0.011625 0.016854528 0.0102705
-0.011775 0.016854528 0.0102048
-0.011925 0.016854528 0.010234
-0.012075 0.016854528 0.010234
-0.012225 0.016854528 0.0102705
-0.012375 0.016854528 0.0102997
-0.012525 0.016854528 0.0102997
-0.012675 0.016854528 0.0102997
-0.012825 0.016854528 0.0102924
-0.012975 0.016854528 0.0102705
-0.013125 0.016854528 0.0102851
-0.013275 0.016854528 0.0102632
-0.013425 0.016854528 0.0102997
-0.013575 0.016854528 0.0102997
-0.013725 0.016854528 0.0102924
-0.013875 0.016854528 0.0102924
-0.014025 0.016854528 0.010307
-0.014175 0.016854528 0.0102705
-0.014325 0.016854528 0.0102705
-0.014475 0.016854528 0.010307
-0.014625 0.016854528 0.010307
-0.014775 0.016854528 0.010307
-0.014925 0.016854528 0.0102267
-0.015075 0.016854528 0.0102632
-0.015225 0.016854528 0.0102851
-0.015375 0.016854528 0.0102851
-0.015525 0.016854528 0.0102778
-0.015675001 0.016854528 0.0102851
-0.015825 0.016854528 0.0102851
-0.015975 0.016854528 0.0102632
-0.016124999 0.016854528 0.010234
-0.016275 0.016854528 0.0102267
-0.016425001 0.016854528 0.0102486
-0.016574999 0.016854528 0.010234
-0.016725 0.016854528 0.0102632
-0.016875001 0.016854528 0.0102048
-0.017024999 0.016854528 0.010234
-0.017175 0.016854528 0.0102194
-0.017325001 0.016854528 0.0101975
-0.017475 0.016854528 0.0102194
-0.017625 0.016854528 0.0102267
-0.017774999 0.016854528 0.0101829
-0.017925 0.016854528 0.0102194
-0.018075 0.016854528 0.0102632
-0.018224999 0.016854528 0.0102121
-0.018375 0.016854528 0.0101756
-0.018525001 0.016854528 0.0101756
-0.018674999 0.016854528 0.0102632
-0.018825 0.016854528 0.0102632
-0.018975001 0.016854528 0.0102851
-0.019125 0.016854528 0.0102997
-0.019275 0.016854528 0.0102486
-0.019424999 0.016854528 0.0102194
-0.019575 0.016854528 0.0102559
-0.019725 0.016854528 0.0102778
-0.019874999 0.016854528 0.0102413
-0.020025 0.016854528 0.0102121
-0.020175001 0.016854528 0.010234
-0.020324999 0.016854528 0.0102413
-0.020475 0.016854528 0.0102413
-0.020625001 0.016854528 0.0101902
-0.020775 0.016854528 0.0101537
-0.020925 0.016854528 0.0101537
-0.021074999 0.016854528 0.0101975
-0.021225 0.016854528 0.010234
-0.021375 0.016854528 0.010234
-0.021524999 0.016854528 0.0102121
-0.021675 0.016854528 0.0102997
-0.021825001 0.016854528 0.010234
-0.021974999 0.016854528 0.0102267
-0.022125 0.016854528 0.0102267
-0.022275001 0.016854528 0.0101683
-0.022425 0.016854528 0.0101975
-0.022575 0.016854528 0.0102267
-0.022724999 0.016854528 0.0102559
-0.022875 0.016854528 0.0102194
-0.023025 0.016854528 0.010161
-0.023174999 0.016854528 0.0102267
-0.023325 0.016854528 0.0102486
-0.023475001 0.016854528 0.0102559
-0.023624999 0.016854528 0.0102121
-0.023775 0.016854528 0.0102121
-0.023925001 0.016854528 0.0102632
-0.024075 0.016854528 0.0102559
-0.024225 0.016854528 0.0102121
-0.024374999 0.016854528 0.0102194
-0.024525 0.016854528 0.0102413
-0.024675 0.016854528 0.0102267
-0.024824999 0.016854528 0.0102121
-0.024975 0.016854528 0.0102267
-0.025125001 0.016854528 0.0101975
-0.025274999 0.016854528 0.0102121
-0.025425 0.016854528 0.0102632
-0.025575001 0.016854528 0.0102851
-0.025725 0.016854528 0.0102486
-0.025875 0.016854528 0.0102267
-0.026024999 0.016854528 0.010234
-0.026175 0.016854528 0.0102559
-0.026325 0.016854528 0.0102851
-0.026474999 0.016854528 0.010307
-0.026625 0.016854528 0.0102632
-0.026775001 0.016854528 0.0102486
-0.026924999 0.016854528 0.0102048
-0.027075 0.016854528 0.0101829
-0.027225001 0.016854528 0.0101756
-0.027375 0.016854528 0.0102194
-0.027525 0.016854528 0.0102267
-0.027674999 0.016854528 0.0102267
-0.027825 0.016854528 0.0102559
-0.027975 0.016854528 0.0102705
-0.028124999 0.016854528 0.0102632
-0.028275 0.016854528 0.0102121
-0.028425001 0.016854528 0.0101756
-0.028574999 0.016854528 0.0102267
-0.028725 0.016854528 0.0102413
-0.028875001 0.016854528 0.0102705
-0.029025 0.016854528 0.010234
-0.029175 0.016854528 0.010234
-0.029324999 0.016854528 0.010234
-0.029475 0.016854528 0.0102194
-0.029625 0.016854528 0.0102267
-0.029774999 0.016854528 0.0102194
-0.029925 0.016854528 0.0102486
-0.030075001 0.016854528 0.0102121
-0.030224999 0.016854528 0.0101975
-0.030375 0.016854528 0.0102194
-0.030525001 0.016854528 0.0102048
-0.030675 0.016854528 0.0102194
-0.030825 0.016854528 0.0102194
-0.030974999 0.016854528 0.0102048
-0.031125 0.016854528 0.0102413
-0.031275 0.016854528 0.0102778
-0.031424999 0.016854528 0.010234
-0.031575002 0.016854528 0.0101245
-0.031725001 0.016854528 0.0102267
-0.031874999 0.016854528 0.0102194
-0.032024998 0.016854528 0.0102121
-0.032175001 0.016854528 0.0102486
-0.032325 0.016854528 0.0102486
-0.032474998 0.016854528 0.0102048
-0.032625001 0.016854528 0.0101902
-0.032775 0.016854528 0.0102121
-0.032924999 0.016854528 0.0102121
-0.033075001 0.016854528 0.0101829
-0.033225 0.016854528 0.0101245
-0.033374999 0.016854528 0.0102559
-0.033525001 0.016854528 0.010161
-0.033675 0.016854528 0.010234
-0.033824999 0.016854528 0.0102194
-0.033975001 0.016854528 0.0101975
-0.034125 0.016854528 0.0102121
-0.034274999 0.016854528 0.0102194
-0.034425002 0.016854528 0.0101902
-0.034575 0.016854528 0.0102048
-0.034724999 0.016854528 0.0102559
-0.034875002 0.016854528 0.0102559
-0.035025001 0.016854528 0.0102851
-0.035174999 0.016854528 0.0102048
-0.035324998 0.016854528 0.0102267
-0.035475001 0.016854528 0.010234
-0.035625 0.016854528 0.0102778
-0.035774998 0.016854528 0.0102705
-0.035925001 0.016854528 0.0102486
-0.036075 0.016854528 0.0102486
-0.036224999 0.016854528 0.010234
-0.036375001 0.016854528 0.0102632
-0.036525 0.016854528 0.0101975
-0.036674999 0.016854528 0.0101902
-0.036825001 0.016854528 0.0102121
-0.036975 0.016854528 0.0101829
-0.037124999 0.016854528 0.0101975
-0.037275001 0.016854528 0.0102486
-0.037425 0.016854528 0.010234
-0.037574999 0.016854528 0.0102048
-0.037725002 0.016854528 0.0101683
-0.037875 0.016854528 0.0101464
-0.038024999 0.016854528 0.0102048
-0.038175002 0.016854528 0.0102121
-0.038325001 0.016854528 0.0102048
-0.038474999 0.016854528 0.0101975
-0.038624998 0.016854528 0.0102121
-0.038775001 0.016854528 0.0102559
-0.038925 0.016854528 0.010234
-0.039074998 0.016854528 0.0102851
-0.039225001 0.016854528 0.0102486
-0.039375 0.016854528 0.0102121
-0.039524999 0.016854528 0.0101975
-0.039675001 0.016854528 0.0102121
-0.039825 0.016854528 0.0102267
-0.039974999 0.016854528 0.0102194
-0.040125001 0.016854528 0.0101902
-0.040275 0.016854528 0.0101829
-0.040424999 0.016854528 0.0102486
-0.040575001 0.016854528 0.0101902
-0.040725 0.016854528 0.0101756
-0.040874999 0.016854528 0.0101829
-0.041025002 0.016854528 0.0102048
-0.041175 0.016854528 0.010234
-0.041324999 0.016854528 0.0102121
-0.041475002 0.016854528 0.0101464
-0.041625001 0.016854528 0.0101172
-0.041774999 0.016854528 0.0102048
-0.041924998 0.016854528 0.0102413
-0.042075001 0.016854528 0.0102705
-0.042225 0.016854528 0.0101975
-0.042374998 0.016854528 0.0101902
-0.042525001 0.016854528 0.0102048
-0.042675 0.016854528 0.0101902
-0.042824998 0.016854528 0.010161
-0.042975001 0.016854528 0.0101756
-0.043125 0.016854528 0.0101975
-0.043274999 0.016854528 0.0101756
-0.043425001 0.016854528 0.0102121
-0.043575 0.016854528 0.0102048
-0.043724999 0.016854528 0.0101537
-0.043875001 0.016854528 0.0101245
-0.044025 0.016854528 0.0101172
-0.044174999 0.016854528 0.0101537
-0.044325002 0.016854528 0.0101756
-0.044475 0.016854528 0.0101683
-0.044624999 0.016854528 0.010161
-0.044775002 0.016854528 0.010161
-0.044925001 0.016854528 0.0102194
-0.045074999 0.016854528 0.0102194
-0.045224998 0.016854528 0.0102267
-0.045375001 0.016854528 0.0101829
-0.045524999 0.016854528 0.0101902
-0.045674998 0.016854528 0.0101975
-0.045825001 0.016854528 0.0102048
-0.045975 0.016854528 0.0101975
-0.046124998 0.016854528 0.0101829
-0.046275001 0.016854528 0.0101756
-0.046425 0.016854528 0.0102048
-0.046574999 0.016854528 0.0102413
-0.046725001 0.016854528 -inf
-0.046875 0.016854528 -inf
-0.047024999 0.016854528 -inf
-0.047175001 0.016854528 -inf
-0.047325 0.016854528 -inf
-0.047474999 0.016854528 -inf
-0.047625002 0.016854528 -inf
-0.047775 0.016854528 -inf
-0.047924999 0.016854528 -inf
-0.048075002 0.016854528 -inf
-0.048225001 0.016854528 -inf
-0.048374999 0.016854528 -inf
-0.048525002 0.016854528 -inf
-0.048675001 0.016854528 -inf
-0.048824999 0.016854528 -inf
-0.048974998 0.016854528 -inf
-0.049125001 0.016854528 -inf
-0.049275 0.016854528 -inf
-0.049424998 0.016854528 -inf
-0.049575001 0.016854528 -inf
-0.049725 0.016854528 -inf
-0.049874999 0.016854528 -inf
0.049874999 0.017790871 -inf
0.049725 0.017790871 -inf
0.049575001 0.017790871 -inf
0.049424998 0.017790871 -inf
0.049275 0.017790871 -inf
0.049125001 0.017790871 -inf
0.048974998 0.017790871 -inf
0.048824999 0.017790871 -inf
0.048675001 0.017790871 -inf
0.048525002 0.017790871 -inf
0.048374999 0.017790871 -inf
0.048225001 0.017790871 -inf
0.048075002 0.017790871 -inf
0.047924999 0.017790871 -inf
0.047775 0.017790871 -inf
0.047625002 0.017790871 -inf
0.047474999 0.017790871 -inf
0.047325 0.017790871 -inf
0.047175001 0.017790871 -inf
0.047024999 0.017790871 -inf
0.046875 0.017790871 -inf
0.046725001 0.017790871 -inf
0.046574999 0.017790871 -inf
0.046425 0.017790871 -inf
0.046275001 0.017790871 -inf
0.046124998 0.017790871 0.0103362
0.045975 0.017790871 0.0103508
0.045825001 0.017790871 0.0103143
0.045674998 0.017790871 0.0103581
0.045524999 0.017790871 0.0103362
0.045375001 0.017790871 0.0102778
0.045224998 0.017790871 0.0102632
0.045074999 0.017790871 0.0102778
0.044925001 0.017790871 0.0102851
0.044775002 0.017790871 0.0103143
0.044624999 0.017790871 0.0103362
0.044475 0.017790871 0.0103581
0.044325002 0.017790871 0.0103508
0.044174999 0.017790871 0.0102851
0.044025 0.017790871 0.0103216
0.043875001 0.017790871 0.0102851
0.043724999 0.017790871 0.0103143
0.043575 0.017790871 0.0103289
0.043425001 0.017790871 0.0103654
0.043274999 0.017790871 0.0103216
0.043125 0.017790871 0.0102851
0.042975001 0.017790871 0.0102924
0.042824998 0.017790871 0.0103143
0.042675 0.017790871 0.0103289
0.042525001 0.017790871 0.0103435
0.042374998 0.017790871 0.0103508
0.042225 0.017790871 0.0103143
0.042075001 0.017790871 0.0103143
0.041924998 0.017790871 0.0102778
0.041774999 0.017790871 0.0103289
0.041625001 0.017790871 0.0103143
0.041475002 0.017790871 0.0102851
0.041324999 0.017790871 0.0102997
0.041175 0.017790871 0.0103289
0.041025002 0.017790871 0.0103362
0.040874999 0.017790871 0.010307
0.040725 0.017790871 0.0102851
0.040575001 0.017790871 0.0103143
0.040424999 0.017790871 0.0103216
0.040275 0.017790871 0.0103362
0.040125001 0.017790871 0.0102924
0.039974999 0.017790871 0.0103362
0.039825 0.017790871 0.0103289
0.039675001 0.017790871 0.0103216
0.039524999 0.017790871 0.0102997
0.039375 0.017790871 0.0102778
0.039225001 0.017790871 0.010307
0.039074998 0.017790871 0.0103216
0.038925 0.017790871 0.0102851
0.038775001 0.017790871 0.0103216
0.038624998 0.017790871 0.0102924
0.038474999 0.017790871 0.0102997
0.038325001 0.017790871 0.0102997
0.038175002 0.017790871 0.0102924
0.038024999 0.017790871 0.0102997
0.037875 0.017790871 0.0103435
0.037725002 0.017790871 0.0103362
0.037574999 0.017790871 0.0103216
0.037425 0.017790871 0.0103216
0.037275001 0.017790871 0.0102851
0.037124999 0.017790871 0.0102851
0.036975 0.017790871 0.0103362
0.036825001 0.017790871 0.0103435
0.036674999 0.017790871 0.0103581
0.036525 0.017790871 0.0103581
0.036375001 0.017790871 0.0103289
0.036224999 0.017790871 0.0103216
0.036075 0.017790871 0.0102997
0.035925001 0.017790871 0.0103143
0.035774998 0.017790871 0.0103435
0.035625 0.017790871 0.0103435
0.035475001 0.017790871 0.0103508
0.035324998 0.017790871 0.0103216
0.035174999 0.017790871 0.0102851
0.035025001 0.017790871 0.010307
0.034875002 0.017790871 0.0103362
0.034724999 0.017790871 0.0102924
0.034575 0.017790871 0.0103216
0.034425002 0.017790871 0.0103143
0.034274999 0.017790871 0.0103362
0.034125 0.017790871 0.0103289
0.033975001 0.017790871 0.0103216
0.033824999 0.017790871 0.0103362
0.033675 0.017790871 0.0103289
0.033525001 0.017790871 0.0103216
0.033374999 0.017790871 0.0103654
0.033225 0.017790871 0.0103362
0.033075001 0.017790871 0.0103143
0.032924999 0.017790871 0.0103362
0.032775 0.017790871 0.010307
0.032625001 0.017790871 0.0102997
0.032474998 0.017790871 0.0102924
0.032325 0.017790871 0.0102997
0.032175001 0.017790871 0.010307
0.032024998 0.017790871 0.0102924
0.031874999 0.017790871 0.0102705
0.031725001 0.017790871 0.0102778
0.031575002 0.017790871 0.0103216
0.031424999 0.017790871 0.0102851
0.031275 0.017790871 0.0102559
0.031125 0.017790871 0.0102997
0.030974999 0.017790871 0.0103216
0.030825 0.017790871 0.0103216
0.030675 0.017790871 0.0103216
0.030525001 0.017790871 0.0103289
0.030375 0.017790871 0.0102851
0.030224999 0.017790871 0.0102559
0.030075001 0.017790871 0.0102632
0.029925 0.017790871 0.010307
0.029774999 0.017790871 0.0102632
0.029625 0.017790871 0.0102413
0.029475 0.017790871 0.0102559
0.029324999 0.017790871 0.0102705
0.029175 0.017790871 0.0102559
0.029025 0.017790871 0.0102632
0.028875001 0.017790871 0.0102705
0.028725 0.017790871 0.0102778
0.028574999 0.017790871 0.0102997
0.028425001 0.017790871 0.0103216
0.028275 0.017790871 0.0103216
0.028124999 0.017790871 0.0102413
0.027975 0.017790871 0.0102048
0.027825 0.017790871 0.0102851
0.027674999 0.017790871 0.0102632
0.027525 0.017790871 0.0102705
0.027375 0.017790871 0.0102778
0.027225001 0.017790871 0.0102632
0.027075 0.017790871 0.0102851
0.026924999 0.017790871 0.0103143
0.026775001 0.017790871 0.0103216
0.026625 0.017790871 0.0103508
0.026474999 0.017790871 0.0103289
0.026325 0.017790871 0.0102632
0.026175 0.017790871 0.0102778
0.026024999 0.017790871 0.0102413
0.025875 0.017790871 0.0102632
0.025725 0.017790871 0.0102559
0.025575001 0.017790871 0.010234
0.025425 0.017790871 0.0102559
0.025274999 0.017790871 0.0102924
0.025125001 0.017790871 0.0102851
0.024975 0.017790871 0.0102559
0.024824999 0.017790871 0.0102486
0.024675 0.017790871 0.0103216
0.024525 0.017790871 0.0102778
0.024374999 0.017790871 0.0103289
0.024225 0.017790871 0.0103654
0.024075 0.017790871 0.0103435
0.023925001 0.017790871 0.0103289
0.023775 0.017790871 0.0103435
0.023624999 0.017790871 0.0103362
0.023475001 0.017790871 0.0103143
0.023325 0.017790871 0.0103581
0.023174999 0.017790871 0.0103873
0.023025 0.017790871 0.0103727
0.022875 0.017790871 0.0102997
0.022724999 0.017790871 0.0103581
0.022575 0.017790871 0.0103216
0.022425 0.017790871 0.0102851
0.022275001 0.017790871 0.0103143
0.022125 0.017790871 0.0103508
0.021974999 0.017790871 0.0103654
0.021825001 0.017790871 0.0103946
0.021675 0.017790871 0.0103435
0.021524999 0.017790871 0.010307
0.021375 0.017790871 0.0102997
0.021225 0.017790871 0.0102997
0.021074999 0.017790871 0.0102851
0.020925 0.017790871 0.0103362
0.020775 0.017790871 0.0102997
0.020625001 0.017790871 0.0102997
0.020475 0.017790871 0.0103435
0.020324999 0.017790871 0.0103581
0.020175001 0.017790871 0.0103362
0.020025 0.017790871 0.0103362
0.019874999 0.017790871 0.0102778
0.019725 0.017790871 0.010307
0.019575 0.017790871 0.0102924
0.019424999 0.017790871 0.0102632
0.019275 0.017790871 0.0102997
0.019125 0.017790871 0.0103143
0.018975001 0.017790871 0.0102632
0.018825 0.017790871 0.0102267
0.018674999 0.017790871 0.010234
0.018525001 0.017790871 0.0102851
0.018375 0.017790871 0.0102997
0.018224999 0.017790871 0.0102486
0.018075 0.017790871 0.0102486
0.017925 0.017790871 0.0102267
0.017774999 0.017790871 0.0102413
0.017625 0.017790871 0.0102778
0.017475 0.017790871 0.0103435
0.017325001 0.017790871 0.01038
0.017175 0.017790871 0.0103508
0.017024999 0.017790871 0.0102924
0.016875001 0.017790871 0.0102705
0.016725 0.017790871 0.0102851
0.016574999 0.017790871 0.0103143
0.016425001 0.017790871 0.0103216
0.016275 0.017790871 0.0102924
0.016124999 0.017790871 0.0102778
0.015975 0.017790871 0.0102924
0.015825 0.017790871 0.0102851
0.015675001 0.017790871 0.0102705
0.015525 0.017790871 0.0102705
0.015375 0.017790871 0.010307
0.015225 0.017790871 0.0103289
0.015075 0.017790871 0.0103289
0.014925 0.017790871 0.0103216
0.014775 0.017790871 0.0103143
0.014625 0.017790871 0.0103508
0.014475 0.017790871 0.0103508
0.014325 0.017790871 0.0103289
0.014175 0.017790871 0.0102924
0.014025 0.017790871 0.0103216
0.013875 0.017790871 0.0103435
0.013725 0.017790871 0.0103362
0.013575 0.017790871 0.0102997
0.013425 0.017790871 0.0102778
0.013275 0.017790871 0.010307
0.013125 0.017790871 0.0103216
0.012975 0.017790871 0.0103727
0.012825 0.017790871 0.0103508
0.012675 0.017790871 0.0102267
0.012525 0.017790871 0.0102632
0.012375 0.017790871 0.010307
0.012225 0.017790871 0.010307
0.012075 0.017790871 0.0103216
0.011925 0.017790871 0.0103362
0.011775 0.017790871 0.0102924
0.011625 0.017790871 0.0102559
0.011475 0.017790871 0.0103216
0.011325 0.017790871 0.010307
0.011175 0.017790871 0.0102705
0.011025 0.017790871 0.0102851
0.010875 0.017790871 0.0103362
0.010725 0.017790871 0.0103216
0.010575 0.017790871 0.0103143
0.010425 0.017790871 0.0102851
0.010275 0.017790871 0.0102778
0.010125 0.017790871 0.0103289
0.0099750003 0.017790871 0.0103362
0.0098249996 0.017790871 0.0102559
0.0096749999 0.017790871 0.0102559
0.0095250001 0.017790871 0.0102851
0.0093750004 0.017790871 0.0102778
0.0092249997 0.017790871 0.0103289
0.009075 0.017790871 0.0103143
0.0089250002 0.017790871 0.0102705
0.0087750005 0.017790871 0.0102632
0.0086249998 0.017790871 0.0102851
0.008475 0.017790871 0.0103216
0.0083250003 0.017790871 0.0103289
0.0081749996 0.017790871 0.0102486
0.0080249999 0.017790871 0.0102559
0.0078750001 0.017790871 0.010307
0.0077249999 0.017790871 0.0103143
0.0075750002 0.017790871 0.0102924
0.007425 0.017790871 0.0102851
0.0072750002 0.017790871 0.0102632
0.007125 0.017790871 0.0102778
0.0069749998 0.017790871 0.0102997
0.006825 0.017790871 0.0102778
0.0066749998 0.017790871 0.0102851
0.0065250001 0.017790871 0.0103289
0.0063749999 0.017790871 0.0102632
0.0062250001 0.017790871 0.0102778
0.0060749999 0.017790871 0.0103508
0.0059250002 0.017790871 0.0103435
0.005775 0.017790871 0.0103143
0.0056250002 0.017790871 0.010307
0.005475 0.017790871 0.0103289
0.0053249998 0.017790871 0.0103143
0.0051750001 0.017790871 0.0102778
0.0050249998 0.017790871 0.0103216
0.0048750001 0.017790871 0.0103143
0.0047249999 0.017790871 0.0103143
0.0045750001 0.017790871 0.0103362
0.0044249999 0.017790871 0.0103143
0.0042750002 0.017790871 0.0102632
0.004125 0.017790871 0.0102632
0.0039750002 0.017790871 0.0102997
0.003825 0.017790871 0.0103289
0.003675 0.017790871 0.0102997
0.0035250001 0.017790871 0.0102559
0.0033750001 0.017790871 0.0102705
0.0032250001 0.017790871 0.0102632
0.0030749999 0.017790871 0.0103581
0.0029249999 0.017790871 0.010307
0.0027749999 0.017790871 0.010307
0.002625 0.017790871 0.0103216
0.002475 0.017790871 0.0103289
0.002325 0.017790871 0.0103143
0.002175 0.017790871 0.010307
0.0020250001 0.017790871 0.0103289
0.001875 0.017790871 0.010307
0.001725 0.017790871 0.0102486
0.001575 0.017790871 0.010307
0.001425 0.017790871 0.0103654
0.001275 0.017790871 0.0103654
0.001125 0.017790871 0.0103435
0.00097499997 0.017790871 0.0103362
0.000825 0.017790871 0.0103654
0.00067500002 0.017790871 0.0103362
0.00052499998 0.017790871 0.0102997
0.000375 0.017790871 0.0103289
0.000225 0.017790871 0.0103508
7.5000004e-05 0.017790871 0.0102778
-7.5000004e-05 0.017790871 0.0102413
-0.000225 0.017790871 0.0102632
-0.000375 0.017790871 0.0102705
-0.00052499998 0.017790871 0.0102486
-0.00067500002 0.017790871 0.0102121
-0.000825 0.017790871 0.010234
-0.00097499997 0.017790871 0.0102705
-0.001125 0.017790871 0.0102559
-0.001275 0.017790871 0.0102559
-0.001425 0.017790871 0.0102924
-0.001575 0.017790871 0.0102997
-0.001725 0.017790871 0.0102559
-0.001875 0.017790871 0.0102851
-0.0020250001 0.017790871 0.0103362
-0.002175 0.017790871 0.0102632
-0.002325 0.017790871 0.0103216
-0.002475 0.017790871 0.0103362
-0.002625 0.017790871 0.0102705
-0.0027749999 0.017790871 0.0102267
-0.0029249999 0.017790871 0.010234
-0.0030749999 0.017790871 0.0102778
-0.0032250001 0.017790871 0.0102997
-0.0033750001 0.017790871 0.0102997
-0.0035250001 0.017790871 0.0102851
-0.003675 0.017790871 0.0103143
-0.003825 0.017790871 0.0102559
-0.0039750002 0.017790871 0.0102559
-0.004125 0.017790871 0.0102413
-0.0042750002 0.017790871 0.0101537
-0.0044249999 0.017790871 0.0102267
-0.0045750001 0.017790871 0.0102705
-0.0047249999 0.017790871 0.0102559
-0.0048750001 0.017790871 0.0102705
-0.0050249998 0.017790871 0.0103143
-0.0051750001 0.017790871 0.0103289
-0.0053249998 0.017790871 0.010234
-0.005475 0.017790871 0.0102705
-0.0056250002 0.017790871 0.0102705
-0.005775 0.017790871 0.0102778
-0.0059250002 0.017790871 0.0102486
-0.0060749999 0.017790871 0.0102705
-0.0062250001 0.017790871 0.0102778
-0.0063749999 0.017790871 0.0102632
-0.0065250001 0.017790871 0.0102632
-0.0066749998 0.017790871 0.0102632
-0.006825 0.017790871 0.0102559
-0.0069749998 0.017790871 0.0102851
-0.007125 0.017790871 0.0102267
-0.0072750002 0.017790871 0.0103143
-0.007425 0.017790871 0.0103143
-0.0075750002 0.017790871 0.010307
-0.0077249999 0.017790871 0.0102924
-0.0078750001 0.017790871 0.0102778
-0.0080249999 0.017790871 0.0102705
-0.0081749996 0.017790871 0.0102486
-0.0083250003 0.017790871 0.0102924
-0.008475 0.017790871 0.0103362
-0.0086249998 0.017790871 0.0103143
-0.0087750005 0.017790871 0.0102924
-0.0089250002 0.017790871 0.0103216
-0.009075 0.017790871 0.0103289
-0.0092249997 0.017790871 0.0102632
-0.0093750004 0.017790871 0.0102705
-0.0095250001 0.017790871 0.0102997
-0.0096749999 0.017790871 0.0102851
-0.0098249996 0.017790871 0.0102778
-0.0099750003 0.017790871 0.0103508
-0.010125 0.017790871 0.0103216
-0.010275 0.017790871 0.0102778
-0.010425 0.017790871 0.0102705
-0.010575 0.017790871 0.0102924
-0.010725 0.017790871 0.0102997
-0.010875 0.017790871 0.0102486
-0.011025 0.017790871 0.0102194
-0.011175 0.017790871 0.0102194
-0.011325 0.017790871 0.0102413
-0.011475 0.017790871 0.0102778
-0.011625 0.017790871 0.0102705
-0.011775 0.017790871 0.010307
-0.011925 0.017790871 0.0102194
-0.012075 0.017790871 0.0102559
-0.012225 0.017790871 0.0102632
-0.012375 0.017790871 0.0102413
-0.012525 0.017790871 0.010307
-0.012675 0.017790871 0.0103289
-0.012825 0.017790871 0.0102924
-0.012975 0.017790871 0.0102632
-0.013125 0.017790871 0.0102121
-0.013275 0.017790871 0.0101829
-0.013425 0.017790871 0.0102778
-0.013575 0.017790871 0.0102413
-0.013725 0.017790871 0.0102559
-0.013875 0.017790871 0.0102778
-0.014025 0.017790871 0.0103216
-0.014175 0.017790871 0.0103362
-0.014325 0.017790871 0.0102997
-0.014475 0.017790871 0.0102997
-0.014625 0.017790871 0.0103362
-0.014775 0.017790871 0.0102924
-0.014925 0.017790871 0.0102924
-0.015075 0.017790871 0.0102997
-0.015225 0.017790871 0.0102997
-0.015375 0.017790871 0.0102997
-0.015525 0.017790871 0.0102924
-0.015675001 0.017790871 0.0102997
-0.015825 0.017790871 0.0103143
-0.015975 0.017790871 0.0102997
-0.016124999 0.017790871 0.0102632
-0.016275 0.017790871 0.0102632
-0.016425001 0.017790871 0.0102778
-0.016574999 0.017790871 0.0102924
-0.016725 0.017790871 0.0101975
-0.016875001 0.017790871 0.0102413
-0.017024999 0.017790871 0.0102486
-0.017175 0.017790871 0.0102413
-0.017325001 0.017790871 0.0102632
-0.017475 0.017790871 0.0102194
-0.017625 0.017790871 0.0102121
-0.017774999 0.017790871 0.0102705
-0.017925 0.017790871 0.0102486
-0.018075 0.017790871 0.0102486
-0.018224999 0.017790871 0.0102997
-0.018375 0.017790871 0.0102121
-0.018525001 0.017790871 0.0102194
-0.018674999 0.017790871 0.0102194
-0.018825 0.017790871 0.0102267
-0.018975001 0.017790871 0.0102559
-0.019125 0.017790871 0.0102778
-0.019275 0.017790871 0.0102778
-0.019424999 0.017790871 0.0102486
-0.019575 0.017790871 0.010234
-0.019725 0.017790871 0.0102413
-0.019874999 0.017790871 0.0102924
-0.020025 0.017790871 0.0101756
-0.020175001 0.017790871 0.010234
-0.020324999 0.017790871 0.0102559
-0.020475 0.017790871 0.0102194
-0.020625001 0.017790871 0.0102048
-0.020775 0.017790871 0.0102121
-0.020925 0.017790871 0.0102194
-0.021074999 0.017790871 0.010234
-0.021225 0.017790871 0.0102413
-0.021375 0.017790871 0.0102486
-0.021524999 0.017790871 0.0102121
-0.021675 0.017790871 0.0102121
-0.021825001 0.017790871 0.0102486
-0.021974999 0.017790871 0.0101829
-0.022125 0.017790871 0.0102121
-0.022275001 0.017790871 0.0102559
-0.022425 0.017790871 0.0102413
-0.022575 0.017790871 0.0102486
-0.022724999 0.017790871 0.0102413
-0.022875 0.017790871 0.010234
-0.023025 0.017790871 0.0102705
-0.023174999 0.017790871 0.010234
-0.023325 0.017790871 0.0102486
-0.023475001 0.017790871 0.0101975
-0.023624999 0.017790871 0.0101683
-0.023775 0.017790871 0.0101902
-0.023925001 0.017790871 0.0102486
-0.024075 0.017790871 0.0102705
-0.024225 0.017790871 0.010234
-0.024374999 0.017790871 0.0102194
-0.024525 0.017790871 0.010234
-0.024675 0.017790871 0.0102267
-0.024824999 0.017790871 0.0102413
-0.024975 0.017790871 0.0102413
-0.025125001 0.017790871 0.0102924
-0.025274999 0.017790871 0.0102851
-0.025425 0.017790871 0.0102851
-0.025575001 0.017790871 0.0102632
-0.025725 0.017790871 0.0102413
-0.025875 0.017790871 0.0102486
-0.026024999 0.017790871 0.0102559
-0.026175 0.017790871 0.0102486
-0.026325 0.017790871 0.0102267
-0.026474999 0.017790871 0.010161
-0.026625 0.017790871 0.0101756
-0.026775001 0.017790871 0.0102121
-0.026924999 0.017790871 0.0102121
-0.027075 0.017790871 0.0102194
-0.027225001 0.017790871 0.0102048
-0.027375 0.017790871 0.0101756
-0.027525 0.017790871 0.0102194
-0.027674999 0.017790871 0.0102194
-0.027825 0.017790871 0.0101902
-0.027975 0.017790871 0.0102267
-0.028124999 0.017790871 0.0102632
-0.028275 0.017790871 0.0102267
-0.028425001 0.017790871 0.0102632
-0.028574999 0.017790871 0.0102413
-0.028725 0.017790871 0.0102705
-0.028875001 0.017790871 0.0102778
-0.029025 0.017790871 0.0102997
-0.029175 0.017790871 0.0102851
-0.029324999 0.017790871 0.0102267
-0.029475 0.017790871 0.0101756
-0.029625 0.017790871 0.0101683
-0.029774999 0.017790871 0.0101975
-0.029925 0.017790871 0.0101975
-0.030075001 0.017790871 0.0102486
-0.030224999 0.017790871 0.0101172
-0.030375 0.017790871 0.0101902
-0.030525001 0.017790871 0.0102121
-0.030675 0.017790871 0.0102632
-0.030825 0.017790871 0.0102924
-0.030974999 0.017790871 0.0102559
-0.031125 0.017790871 0.0102194
-0.031275 0.017790871 0.0102194
-0.031424999 0.017790871 0.0102413
-0.031575002 0.017790871 0.0102705
-0.031725001 0.017790871 0.010234
-0.031874999 0.017790871 0.0101902
-0.032024998 0.017790871 0.0101537
-0.032175001 0.017790871 0.010234
-0.032325 0.017790871 0.0102486
-0.032474998 0.017790871 0.0102194
-0.032625001 0.017790871 0.0102413
-0.032775 0.017790871 0.0102559
-0.032924999 0.017790871 0.0101975
-0.033075001 0.017790871 0.0101756
-0.033225 0.017790871 0.0102194
-0.033374999 0.017790871 0.0102413
-0.033525001 0.017790871 0.0102048
-0.033675 0.017790871 0.0101975
-0.033824999 0.017790871 0.0101683
-0.033975001 0.017790871 0.0101975
-0.034125 0.017790871 0.0102413
-0.034274999 0.017790871 0.0102559
-0.034425002 0.017790871 0.0102267
-0.034575 0.017790871 0.0102267
-0.034724999 0.017790871 0.0102778
-0.034875002 0.017790871 0.0102486
-0.035025001 0.017790871 0.0102267
-0.035174999 0.017790871 0.0102267
-0.035324998 0.017790871 0.0102486
-0.035475001 0.017790871 0.0102559
-0.035625 0.017790871 0.0102413
-0.035774998 0.017790871 0.0102267
-0.035925001 0.017790871 0.0102413
-0.036075 0.017790871 0.0102559
-0.036224999 0.017790871 0.0102413
-0.036375001 0.017790871 0.0101829
-0.036525 0.017790871 0.0101537
-0.036674999 0.017790871 0.0101318
-0.036825001 0.017790871 0.010161
-0.036975 0.017790871 0.0101975
-0.037124999 0.017790871 0.010234
-0.037275001 0.017790871 0.0102413
-0.037425 0.017790871 0.0101829
-0.037574999 0.017790871 0.0102121
-0.037725002 0.017790871 0.0102267
-0.037875 0.017790871 0.0101902
-0.038024999 0.017790871 0.0101829
-0.038175002 0.017790871 0.0101391
-0.038325001 0.017790871 0.0101902
-0.038474999 0.017790871 0.0101391
-0.038624998 0.017790871 0.0101756
-0.038775001 0.017790871 0.010234
-0.038925 0.017790871 0.0102486
-0.039074998 0.017790871 0.0102194
-0.039225001 0.017790871 0.0101975
-0.039375 0.017790871 0.0102194
-0.039524999 0.017790871 0.0102413
-0.039675001 0.017790871 0.0102413
-0.039825 0.017790871 0.010234
-0.039974999 0.017790871 0.0101829
-0.040125001 0.017790871 0.0101975
-0.040275 0.017790871 0.010234
-0.040424999 0.017790871 0.0101756
-0.040575001 0.017790871 0.0101391
-0.040725 0.017790871 0.0101464
-0.040874999 0.017790871 0.0101683
-0.041025002 0.017790871 0.0101464
-0.041175 0.017790871 0.0101683
-0.041324999 0.017790871 0.0102413
-0.041475002 0.017790871 0.0102413
-0.041625001 0.017790871 0.0101975
-0.041774999 0.017790871 0.010161
-0.041924998 0.017790871 0.0101902
-0.042075001 0.017790871 0.0101683
-0.042225 0.017790871 0.010161
-0.042374998 0.017790871 0.0101318
-0.042525001 0.017790871 0.0101975
-0.042675 0.017790871 0.0102486
-0.042824998 0.017790871 0.0102048
-0.042975001 0.017790871 0.0101683
-0.043125 0.017790871 0.0102048
-0.043274999 0.017790871 0.010234
-0.043425001 0.017790871 0.0101829
-0.043575 0.017790871 0.0101829
-0.043724999 0.017790871 0.0102267
-0.043875001 0.017790871 0.0102048
-0.044025 0.017790871 0.0101464
-0.044174999 0.017790871 0.0101537
-0.044325002 0.017790871 0.0101756
-0.044475 0.017790871 0.0101756
-0.044624999 0.017790871 0.0101829
-0.044775002 0.017790871 0.0101537
-0.044925001 0.017790871 0.010161
-0.045074999 0.017790871 0.0102048
-0.045224998 0.017790871 0.0102413
-0.045375001 0.017790871 0.0102413
-0.045524999 0.017790871 0.0102559
-0.045674998 0.017790871 0.0102486
-0.045825001 0.017790871 0.0102778
-0.045975 0.017790871 0.0102705
-0.046124998 0.017790871 0.0102413
-0.046275001 0.017790871 0.0102267
-0.046425 0.017790871 -inf
-0.046574999 0.017790871 -inf
-0.046725001 0.017790871 -inf
-0.046875 0.017790871 -inf
-0.047024999 0.017790871 -inf
-0.047175001 0.017790871 -inf
-0.047325 0.017790871 -inf
-0.047474999 0.017790871 -inf
-0.047625002 0.017790871 -inf
-0.047775 0.017790871 -inf
-0.047924999 0.017790871 -inf
-0.048075002 0.017790871 -inf
-0.048225001 0.017790871 -inf
-0.048374999 0.017790871 -inf
-0.048525002 0.017790871 -inf
-0.048675001 0.017790871 -inf
-0.048824999 0.017790871 -inf
-0.048974998 0.017790871 -inf
-0.049125001 0.017790871 -inf
-0.049275 0.017790871 -inf
-0.049424998 0.017790871 -inf
-0.049575001 0.017790871 -inf
-0.049725 0.017790871 -inf
-0.049874999 0.017790871 -inf
0.049874999 0.018727211 -inf
0.049725 0.018727211 -inf
0.049575001 0.018727211 -inf
0.049424998 0.018727211 -inf
0.049275 0.018727211 -inf
0.049125001 0.018727211 -inf
0.048974998 0.018727211 -inf
0.048824999 0.018727211 -inf
0.048675001 0.018727211 -inf
0.048525002 0.018727211 -inf
0.048374999 0.018727211 -inf
0.048225001 0.018727211 -inf
0.048075002 0.018727211 -inf
0.047924999 0.018727211 -inf
0.047775 0.018727211 -inf
0.047625002 0.018727211 -inf
0.047474999 0.018727211 -inf
0.047325 0.018727211 -inf
0.047175001 0.018727211 -inf
0.047024999 0.018727211 -inf
0.046875 0.018727211 -inf
0.046725001 0.018727211 -inf
0.046574999 0.018727211 -inf
0.046425 0.018727211 -inf
0.046275001 0.018727211 -inf
0.046124998 0.018727211 -inf
0.045975 0.018727211 -inf
0.045825001 0.018727211 0.010307
0.045674998 0.018727211 0.0103508
0.045524999 0.018727211 0.0102924
0.045375001 0.018727211 0.0103654
0.045224998 0.018727211 0.0103581
0.045074999 0.018727211 0.0103508
0.044925001 0.018727211 0.0103216
0.044775002 0.018727211 0.010307
0.044624999 0.018727211 0.0103216
0.044475 0.018727211 0.0102924
0.044325002 0.018727211 0.010234
0.044174999 0.018727211 0.0102559
0.044025 0.018727211 0.0102851
0.043875001 0.018727211 0.0103143
0.043724999 0.018727211 0.0103143
0.043575 0.018727211 0.0102851
0.043425001 0.018727211 0.0102778
0.043274999 0.018727211 0.0103216
0.043125 0.018727211 0.0103435
0.042975001 0.018727211 0.0103143
0.042824998 0.018727211 0.0103216
0.042675 0.018727211 0.0103581
0.042525001 0.018727211 0.0103362
0.042374998 0.018727211 0.0102924
0.042225 0.018727211 0.0102997
0.042075001 0.018727211 0.0103143
0.041924998 0.018727211 0.0103216
0.041774999 0.018727211 0.0102851
0.041625001 0.018727211 0.010307
0.041475002 0.018727211 0.0103143
0.041324999 0.018727211 0.0102924
0.041175 0.018727211 0.0103143
0.041025002 0.018727211 0.0103289
0.040874999 0.018727211 0.0103143
0.040725 0.018727211 0.0103508
0.040575001 0.018727211 0.0102924
0.040424999 0.018727211 0.0102778
0.040275 0.018727211 0.0102705
0.040125001 0.018727211 0.0103289
0.039974999 0.018727211 0.010307
0.039825 0.018727211 0.0102997
0.039675001 0.018727211 0.0102559
0.039524999 0.018727211 0.0102778
0.039375 0.018727211 0.0103143
0.039225001 0.018727211 0.0103216
0.039074998 0.018727211 0.0103216
0.038925 0.018727211 0.010307
0.038775001 0.018727211 0.0103362
0.038624998 0.018727211 0.0103727
0.038474999 0.018727211 0.010307
0.038325001 0.018727211 0.0103216
0.038175002 0.018727211 0.0103216
0.038024999 0.018727211 0.0103143
0.037875 0.018727211 0.010307
0.037725002 0.018727211 0.0102778
0.037574999 0.018727211 0.0103143
0.037425 0.018727211 0.0103654
0.037275001 0.018727211 0.0103435
0.037124999 0.018727211 0.0103216
0.036975 0.018727211 0.0102778
