# .PCD v0.7 - Point Cloud Data file format
VERSION 0.7
FIELDS x y z
SIZE 4 4 4
TYPE F F F
COUNT 1 1 1
WIDTH 1425
HEIGHT 1
VIEWPOINT 0 0 0 1 0 0 0
POINTS 1425
DATA ascii
-0.022425 0.00093623 0.020023299
-0.022575 0.00093623 0.0200963
-0.022724999 0.00093623 0.0201109
-0.022875 0.00093623 0.0201474
-0.023025 0.00093623 0.020161999
-0.023174999 0.00093623 0.0202277
-0.023325 0.00093623 0.020300699
-0.023475001 0.00093623 0.020344499
-0.023624999 0.00093623 0.0203883
-0.023775 0.00093623 0.020439399
-0.023925001 0.00093623 0.0205124
-0.024075 0.00093623 0.020541601
-0.024225 0.00093623 0.0205197
-0.024374999 0.00093623 0.020548901
-0.024525 0.00093623 0.020578099
-0.024675 0.00093623 0.020687601
-0.024824999 0.00093623 0.0207095
-0.024975 0.00093623 0.020680301
-0.025125001 0.00093623 0.0206219
-0.025274999 0.00093623 0.020629199
-0.025425 0.00093623 0.020592701
-0.025575001 0.00093623 0.0205197
-0.025725 0.00093623 0.0204686
-0.025875 0.00093623 0.0204321
-0.026024999 0.00093623 0.0203883
-0.026175 0.00093623 0.0203299
-0.026325 0.00093623 0.020235
-0.026474999 0.00093623 0.0199722
-0.026625 0.00093623 0.0199722
-0.026775001 0.00093623 0.0199065
-0.026924999 0.00093623 0.019745899
-0.027075 0.00093623 0.0195999
-0.027225001 0.00093623 0.019512299
-0.027375 0.00093623 0.019424699
-0.027525 0.00093623 0.019300601
-0.027674999 0.00093623 0.0190743
-0.027825 0.00093623 0.0189356
-0.027975 0.00093623 0.0187604
-0.028124999 0.00093623 0.0185195
-0.028275 0.00093623 0.0182421
-0.028425001 0.00093623 0.0179282
-0.028574999 0.00093623 0.0175559
-0.028725 0.00093623 0.017074101
-0.028875001 0.00093623 0.016694499
-0.029025 0.00093623 -inf
-0.029175 0.00093623 -inf
0.029175 0.001872571 -inf
0.029025 0.001872571 -inf
0.028875001 0.001872571 -inf
0.028725 0.001872571 0.017161701
0.028574999 0.001872571 0.017541301
0.028425001 0.001872571 0.0178844
0.028275 0.001872571 0.018169099
0.028124999 0.001872571 0.018483
0.027975 0.001872571 0.0186728
0.027825 0.001872571 0.0188845
0.027674999 0.001872571 0.019008599
0.027525 0.001872571 0.019147299
0.027375 0.001872571 0.019329799
0.027225001 0.001872571 0.019483101
0.027075 0.001872571 0.019570701
0.026924999 0.001872571 0.019753199
0.026775001 0.001872571 0.0198116
0.026625 0.001872571 0.019891899
0.026474999 0.001872571 0.020023299
0.026325 0.001872571 0.020118199
0.026175 0.001872571 0.0202277
0.026024999 0.001872571 0.0203299
0.025875 0.001872571 0.0203664
0.025725 0.001872571 0.0203372
0.025575001 0.001872571 0.020439399
0.025425 0.001872571 0.020402901
0.025274999 0.001872571 0.020395599
0.025125001 0.001872571 0.020454001
0.024975 0.001872571 0.0204321
0.024824999 0.001872571 0.020439399
0.024675 0.001872571 0.0203737
0.024525 0.001872571 0.020359101
0.024374999 0.001872571 0.020264201
0.024225 0.001872571 0.0201912
0.024075 0.001872571 0.020132801
0.023925001 0.001872571 0.0200963
0.023775 0.001872571 0.020089
0.023624999 0.001872571 0.0200525
0.023475001 0.001872571 0.0200014
0.023325 0.001872571 0.0199503
0.023174999 0.001872571 0.0199576
0.023025 0.001872571 0.0199138
0.022875 0.001872571 0.0198627
0.022724999 0.001872571 0.0197751
0.022575 0.001872571 0.019702099
0.022425 0.001872571 0.019702099
0.022275001 0.001872571 0.019665601
0.022125 0.001872571 0.0195999
0.021974999 0.001872571 0.0195926
0.021825001 0.001872571 0.0195561
0.021675 0.001872571 0.019475801
0.021524999 0.001872571 0.0194612
0.021375 0.001872571 0.0194612
0.021225 0.001872571 0.019388201
0.021074999 0.001872571 0.0193152
0.020925 0.001872571 0.0193225
0.020775 0.001872571 0.019373599
0.020625001 0.001872571 0.019329799
0.020475 0.001872571 0.0192714
0.020324999 0.001872571 0.0192787
0.020175001 0.001872571 0.019359
0.020025 0.001872571 0.0194174
0.019874999 0.001872571 0.019505
0.019725 0.001872571 0.0196437
0.019575 0.001872571 0.0197313
0.019424999 0.001872571 0.0198116
0.019275 0.001872571 0.019855401
0.019125 0.001872571 0.0199138
0.018975001 0.001872571 0.020067099
0.018825 0.001872571 0.0201474
0.018674999 0.001872571 0.020176601
0.018525001 0.001872571 0.0202423
0.018375 0.001872571 0.020307999
0.018224999 0.001872571 0.020381
0.018075 0.001872571 0.0204175
0.017925 0.001872571 0.020439399
0.017774999 0.001872571 0.0205197
0.017625 0.001872571 0.020578099
0.017475 0.001872571 0.020629199
0.017325001 0.001872571 0.0207387
0.017175 0.001872571 0.020862799
0.017024999 0.001872571 0.0209285
0.016875001 0.001872571 0.0209796
0.016725 0.001872571 0.0210307
0.016574999 0.001872571 0.021038
0.016425001 0.001872571 0.021111
0.016275 0.001872571 0.021183999
0.016124999 0.001872571 0.021257
0.015975 0.001872571 0.0213154
0.015825 0.001872571 0.021403
0.015675001 0.001872571 0.0214541
0.015525 0.001872571 0.021476001
0.015375 0.001872571 0.021512499
0.015225 0.001872571 0.021512499
0.015075 0.001872571 0.021563601
0.014925 0.001872571 0.021614701
0.014775 0.001872571 0.0216293
0.014625 0.001872571 0.0217242
0.014475 0.001872571 0.021746101
0.014325 0.001872571 0.021768
0.014175 0.001872571 0.021753401
0.014025 0.001872571 0.0218483
0.013875 0.001872571 0.0167237
0.013725 0.001872571 0.0203226
0.013575 0.001872571 0.021965099
0.013425 0.001872571 0.021928599
0.013275 0.001872571 0.021892101
0.013125 0.001872571 0.0217096
0.012975 0.001872571 0.021089099
0.012825 0.001872571 0.0204686
0.012675 0.001872571 -inf
0.012525 0.001872571 -inf
0.012375 0.001872571 -inf
0.012225 0.001872571 -inf
0.012075 0.001872571 -inf
0.011925 0.001872571 -inf
0.011775 0.001872571 -inf
0.011625 0.001872571 -inf
0.011475 0.001872571 -inf
0.011325 0.001872571 -inf
0.011175 0.001872571 -inf
0.011025 0.001872571 -inf
0.010875 0.001872571 0.0360322
0.010725 0.001872571 0.036419101
0.010575 0.001872571 0.036805999
0.010425 0.001872571 0.037061501
0.010275 0.001872571 0.037309699
0.010125 0.001872571 0.037601698
0.0099750003 0.001872571 0.037849899
0.0098249996 0.001872571 0.0380616
0.0096749999 0.001872571 0.038346302
0.0095250001 0.001872571 0.038550701
0.0093750004 0.001872571 0.038674802
0.0092249997 0.001872571 0.038879201
0.009075 0.001872571 0.039105501
0.0089250002 0.001872571 0.039280701
0.0087750005 0.001872571 0.039419401
0.0086249998 0.001872571 0.039594602
0.008475 0.001872571 0.039704099
0.0083250003 0.001872571 0.039857399
0.0081749996 0.001872571 0.040010698
0.0080249999 0.001872571 0.040127501
0.0078750001 0.001872571 0.040288098
0.0077249999 0.001872571 0.040383
0.0075750002 0.001872571 0.040507101
0.007425 0.001872571 0.040638499
0.0072750002 0.001872571 0.040733401
0.007125 0.001872571 0.0408356
0.0069749998 0.001872571 0.040959701
0.006825 0.001872571 0.041054599
0.0066749998 0.001872571 0.041113
0.0065250001 0.001872571 0.0412152
0.0063749999 0.001872571 0.0413028
0.0062250001 0.001872571 0.041412301
0.0060749999 0.001872571 0.0414415
0.0059250002 0.001872571 0.0415802
0.005775 0.001872571 0.041675098
0.0056250002 0.001872571 0.041755401
0.005475 0.001872571 0.041813798
0.0053249998 0.001872571 0.0418722
0.0051750001 0.001872571 0.041952498
0.0050249998 0.001872571 0.042040098
0.0048750001 0.001872571 0.042127699
0.0047249999 0.001872571 0.042113099
0.0045750001 0.001872571 0.042229898
0.0044249999 0.001872571 0.0423248
0.0042750002 0.001872571 0.042317498
0.004125 0.001872571 0.042346701
0.0039750002 0.001872571 0.042390499
0.003825 0.001872571 0.042397801
0.003675 0.001872571 0.042492699
0.0035250001 0.001872571 0.0425657
0.0033750001 0.001872571 0.042631399
0.0032250001 0.001872571 0.042667899
0.0030749999 0.001872571 0.042675201
0.0029249999 0.001872571 0.042711701
0.0027749999 0.001872571 0.042755499
0.002625 0.001872571 0.042784698
0.002475 0.001872571 0.0428431
0.002325 0.001872571 0.042886902
0.002175 0.001872571 0.0429161
0.0020250001 0.001872571 0.043010999
0.001875 0.001872571 0.0430548
0.001725 0.001872571 0.043062098
0.001575 0.001872571 0.043083999
0.001425 0.001872571 0.043142401
0.001275 0.001872571 0.043127801
0.001125 0.001872571 0.043091301
0.00097499997 0.001872571 0.043091301
0.000825 0.001872571 0.043127801
0.00067500002 0.001872571 0.043178901
0.00052499998 0.001872571 0.043200798
0.000375 0.001872571 0.0431935
0.000225 0.001872571 0.043215401
7.5000004e-05 0.001872571 0.0432446
-7.5000004e-05 0.001872571 0.043237299
-0.000225 0.001872571 0.043222699
-0.000375 0.001872571 0.0431935
-0.00052499998 0.001872571 0.043178901
-0.00067500002 0.001872571 0.043178901
-0.000825 0.001872571 0.043157
-0.00097499997 0.001872571 0.0431935
-0.001125 0.001872571 0.0431935
-0.001275 0.001872571 0.043142401
-0.001425 0.001872571 0.0431059
-0.001575 0.001872571 0.043127801
-0.001725 0.001872571 0.0431205
-0.001875 0.001872571 0.043076701
-0.0020250001 0.001872571 0.043040201
-0.002175 0.001872571 0.043025602
-0.002325 0.001872571 0.043010999
-0.002475 0.001872571 0.0429818
-0.002625 0.001872571 0.042938001
-0.0027749999 0.001872571 0.042908799
-0.0029249999 0.001872571 0.0428796
-0.0030749999 0.001872571 0.0428285
-0.0032250001 0.001872571 0.042784698
-0.0033750001 0.001872571 0.042762801
-0.0035250001 0.001872571 0.042726301
-0.003675 0.001872571 0.042667899
-0.003825 0.001872571 0.042594898
-0.0039750002 0.001872571 0.042558402
-0.004125 0.001872571 0.0425146
-0.0042750002 0.001872571 0.042441599
-0.0044249999 0.001872571 0.042353999
-0.0045750001 0.001872571 0.042368598
-0.0047249999 0.001872571 0.0422883
-0.0048750001 0.001872571 0.042215299
-0.0050249998 0.001872571 0.042164199
-0.0051750001 0.001872571 0.042069301
-0.0053249998 0.001872571 0.042003602
-0.005475 0.001872571 0.041952498
-0.0056250002 0.001872571 0.041886799
-0.005775 0.001872571 0.041843001
-0.0059250002 0.001872571 0.041740801
-0.0060749999 0.001872571 0.041689701
-0.0062250001 0.001872571 0.041638602
-0.0063749999 0.001872571 0.041558299
-0.0065250001 0.001872571 0.041470699
-0.0066749998 0.001872571 0.041383099
-0.006825 0.001872571 0.041273601
-0.0069749998 0.001872571 0.041171402
-0.007125 0.001872571 0.041105699
-0.0072750002 0.001872571 0.040996201
-0.007425 0.001872571 0.040857501
-0.0075750002 0.001872571 0.040740699
-0.0077249999 0.001872571 0.0406093
-0.0078750001 0.001872571 0.040536299
-0.0080249999 0.001872571 0.040412199
-0.0081749996 0.001872571 0.040251601
-0.0083250003 0.001872571 0.040083699
-0.008475 0.001872571 0.039959598
-0.0086249998 0.001872571 0.039835501
-0.0087750005 0.001872571 0.039645702
-0.0089250002 0.001872571 0.039507002
-0.009075 0.001872571 0.039404798
-0.0092249997 0.001872571 0.0392588
-0.0093750004 0.001872571 0.0390836
-0.0095250001 0.001872571 0.038820799
-0.0096749999 0.001872571 0.038601801
-0.0098249996 0.001872571 0.038382798
-0.0099750003 0.001872571 0.038192999
-0.010125 0.001872571 0.0380251
-0.010275 0.001872571 0.037725799
-0.010425 0.001872571 0.0374557
-0.010575 0.001872571 0.0371783
-0.010725 0.001872571 0.036857098
-0.010875 0.001872571 0.036587
-0.011025 0.001872571 0.036229301
-0.011175 0.001872571 -inf
-0.011325 0.001872571 -inf
-0.011475 0.001872571 -inf
-0.011625 0.001872571 -inf
-0.011775 0.001872571 -inf
-0.011925 0.001872571 -inf
-0.012075 0.001872571 -inf
-0.012225 0.001872571 -inf
-0.012375 0.001872571 -inf
-0.012525 0.001872571 -inf
-0.012675 0.001872571 -inf
-0.012825 0.001872571 -inf
-0.012975 0.001872571 -inf
-0.013125 0.001872571 0.020169299
-0.013275 0.001872571 0.0201912
-0.013425 0.001872571 0.0207533
-0.013575 0.001872571 0.021476001
-0.013725 0.001872571 0.021746101
-0.013875 0.001872571 0.021789899
-0.014025 0.001872571 0.0217315
-0.014175 0.001872571 0.021548999
-0.014325 0.001872571 0.021038
-0.014475 0.001872571 0.0188626
-0.014625 0.001872571 0.0215344
-0.014775 0.001872571 0.0214468
-0.014925 0.001872571 0.0214468
-0.015075 0.001872571 0.021417599
-0.015225 0.001872571 0.021366499
-0.015375 0.001872571 0.021337301
-0.015525 0.001872571 0.021278899
-0.015675001 0.001872571 0.0212059
-0.015825 0.001872571 0.021132899
-0.015975 0.001872571 0.021059901
-0.016124999 0.001872571 -inf
-0.016275 0.001872571 -inf
-0.016425001 0.001872571 -inf
-0.016574999 0.001872571 -inf
-0.016725 0.001872571 -inf
-0.016875001 0.001872571 0.0207533
-0.017024999 0.001872571 0.0206657
-0.017175 0.001872571 0.0206219
-0.017325001 0.001872571 0.020592701
-0.017475 0.001872571 0.0205051
-0.017625 0.001872571 0.020402901
-0.017774999 0.001872571 0.020351799
-0.017925 0.001872571 0.020264201
-0.018075 0.001872571 0.0201839
-0.018224999 0.001872571 0.0201036
-0.018375 0.001872571 0.020037901
-0.018525001 0.001872571 0.0199576
-0.018674999 0.001872571 0.0198627
-0.018825 0.001872571 0.0197678
-0.018975001 0.001872571 0.0196875
-0.019125 0.001872571 0.0196364
-0.019275 0.001872571 0.0195561
-0.019424999 0.001872571 0.0194612
-0.019575 0.001872571 0.0194612
-0.019725 0.001872571 0.0193079
-0.019874999 0.001872571 0.019337101
-0.020025 0.001872571 0.0193663
-0.020175001 0.001872571 0.0193955
-0.020324999 0.001872571 0.0193955
-0.020475 0.001872571 0.019380899
-0.020625001 0.001872571 0.0194101
-0.020775 0.001872571 0.0194904
-0.020925 0.001872571 0.0195342
-0.021074999 0.001872571 0.019519599
-0.021225 0.001872571 0.019570701
-0.021375 0.001872571 0.0196802
-0.021524999 0.001872571 0.0196875
-0.021675 0.001872571 0.0197824
-0.021825001 0.001872571 0.019840799
-0.021974999 0.001872571 0.0199211
-0.022125 0.001872571 0.0199211
-0.022275001 0.001872571 0.019994101
-0.022425 0.001872571 0.019986801
-0.022575 0.001872571 0.020023299
-0.022724999 0.001872571 0.0200525
-0.022875 0.001872571 0.020118199
-0.023025 0.001872571 0.020132801
-0.023174999 0.001872571 0.0201985
-0.023325 0.001872571 0.020307999
-0.023475001 0.001872571 0.020381
-0.023624999 0.001872571 0.0204175
-0.023775 0.001872571 0.0204248
-0.023925001 0.001872571 0.0204759
-0.024075 0.001872571 0.0204686
-0.024225 0.001872571 0.0205051
-0.024374999 0.001872571 0.0205635
-0.024525 0.001872571 0.0206584
-0.024675 0.001872571 0.0206146
-0.024824999 0.001872571 0.020636501
-0.024975 0.001872571 0.020636501
-0.025125001 0.001872571 0.020629199
-0.025274999 0.001872571 0.0206146
-0.025425 0.001872571 0.020534299
-0.025575001 0.001872571 0.0204613
-0.025725 0.001872571 0.020410201
-0.025875 0.001872571 0.020381
-0.026024999 0.001872571 0.020315301
-0.026175 0.001872571 0.0201912
-0.026325 0.001872571 0.020081701
-0.026474999 0.001872571 0.019994101
-0.026625 0.001872571 0.019848101
-0.026775001 0.001872571 0.019760501
-0.026924999 0.001872571 0.019658299
-0.027075 0.001872571 0.0195488
-0.027225001 0.001872571 0.019432001
-0.027375 0.001872571 0.019300601
-0.027525 0.001872571 0.019154601
-0.027674999 0.001872571 0.0189794
-0.027825 0.001872571 0.0187604
-0.027975 0.001872571 0.018541399
-0.028124999 0.001872571 0.0182859
-0.028275 0.001872571 0.018001201
-0.028425001 0.001872571 0.0177019
-0.028574999 0.001872571 0.017439101
-0.028725 0.001872571 0.0170887
-0.028875001 0.001872571 -inf
-0.029025 0.001872571 -inf
-0.029175 0.001872571 -inf
0.029175 0.002808912 -inf
0.029025 0.002808912 -inf
0.028875001 0.002808912 -inf
0.028725 0.002808912 -inf
0.028574999 0.002808912 -inf
0.028425001 0.002808912 0.0174099
0.028275 0.002808912 0.0177457
0.028124999 0.002808912 0.018088801
0.027975 0.002808912 0.018315099
0.027825 0.002808912 0.018497599
0.027674999 0.002808912 0.018680099
0.027525 0.002808912 0.018818799
0.027375 0.002808912 0.0189794
0.027225001 0.002808912 0.0191838
0.027075 0.002808912 0.0193225
0.026924999 0.002808912 0.019439301
0.026775001 0.002808912 0.019505
0.026625 0.002808912 0.019658299
0.026474999 0.002808912 0.0197678
0.026325 0.002808912 0.019855401
0.026175 0.002808912 0.0199722
0.026024999 0.002808912 0.020067099
0.025875 0.002808912 0.020132801
0.025725 0.002808912 0.0201912
0.025575001 0.002808912 0.020205799
0.025425 0.002808912 0.0202277
0.025274999 0.002808912 0.0201985
0.025125001 0.002808912 0.0201547
0.024975 0.002808912 0.020132801
0.024824999 0.002808912 0.020081701
0.024675 0.002808912 0.020067099
0.024525 0.002808912 0.0200525
0.024374999 0.002808912 0.0200014
0.024225 0.002808912 0.019979499
0.024075 0.002808912 0.019943001
0.023925001 0.002808912 0.01987
0.023775 0.002808912 0.0198262
0.023624999 0.002808912 0.019840799
0.023475001 0.002808912 0.019804301
0.023325 0.002808912 0.019745899
0.023174999 0.002808912 0.019702099
0.023025 0.002808912 0.0196364
0.022875 0.002808912 0.0195853
0.022724999 0.002808912 0.019614501
0.022575 0.002808912 0.0195853
0.022425 0.002808912 0.0194101
0.022275001 0.002808912 0.019439301
0.022125 0.002808912 0.0194028
0.021974999 0.002808912 0.0193955
0.021825001 0.002808912 0.0194028
0.021675 0.002808912 0.019329799
0.021524999 0.002808912 0.0192641
0.021375 0.002808912 0.019242199
0.021225 0.002808912 0.019242199
0.021074999 0.002808912 0.019205701
0.020925 0.002808912 0.0191838
0.020775 0.002808912 0.019234899
0.020625001 0.002808912 0.019213
0.020475 0.002808912 0.019198401
0.020324999 0.002808912 0.0192787
0.020175001 0.002808912 0.019359
0.020025 0.002808912 0.019439301
0.019874999 0.002808912 0.019512299
0.019725 0.002808912 0.019526901
0.019575 0.002808912 0.0196437
0.019424999 0.002808912 0.0197313
0.019275 0.002808912 0.019804301
0.019125 0.002808912 0.019891899
0.018975001 0.002808912 0.0199576
0.018825 0.002808912 0.020067099
0.018674999 0.002808912 0.020118199
0.018525001 0.002808912 0.020169299
0.018375 0.002808912 0.0202861
0.018224999 0.002808912 0.0203372
0.018075 0.002808912 0.0204175
0.017925 0.002808912 0.0205124
0.017774999 0.002808912 0.0205635
0.017625 0.002808912 0.0206146
0.017475 0.002808912 0.0206949
0.017325001 0.002808912 0.020782501
0.017175 0.002808912 0.020870101
0.017024999 0.002808912 0.020950399
0.016875001 0.002808912 0.0209869
0.016725 0.002808912 0.021038
0.016574999 0.002808912 0.0210672
0.016425001 0.002808912 0.021096401
0.016275 0.002808912 0.0211256
0.016124999 0.002808912 0.021183999
0.015975 0.002808912 0.021278899
0.015825 0.002808912 0.021381101
0.015675001 0.002808912 0.0214468
0.015525 0.002808912 0.0214906
0.015375 0.002808912 0.021519801
0.015225 0.002808912 0.021556299
0.015075 0.002808912 0.021651199
0.014925 0.002808912 0.0217315
0.014775 0.002808912 0.021753401
0.014625 0.002808912 0.0217753
0.014475 0.002808912 0.0217753
0.014325 0.002808912 0.0217753
0.014175 0.002808912 0.0218556
0.014025 0.002808912 0.021914
0.013875 0.002808912 0.0219505
0.013725 0.002808912 0.0220089
0.013575 0.002808912 0.0220454
0.013425 0.002808912 0.0155338
0.013275 0.002808912 0.0192787
0.013125 0.002808912 0.021965099
0.012975 0.002808912 0.021103701
0.012825 0.002808912 0.019979499
0.012675 0.002808912 0.019760501
0.012525 0.002808912 -inf
0.012375 0.002808912 -inf
0.012225 0.002808912 -inf
0.012075 0.002808912 -inf
0.011925 0.002808912 -inf
0.011775 0.002808912 -inf
0.011625 0.002808912 -inf
0.011475 0.002808912 -inf
0.011325 0.002808912 -inf
0.011175 0.002808912 -inf
0.011025 0.002808912 -inf
0.010875 0.002808912 -inf
0.010725 0.002808912 -inf
0.010575 0.002808912 -inf
0.010425 0.002808912 0.035820499
0.010275 0.002808912 0.036200099
0.010125 0.002808912 0.036557801
0.0099750003 0.002808912 0.036893599
0.0098249996 0.002808912 0.037119899
0.0096749999 0.002808912 0.037338901
0.0095250001 0.002808912 0.037616301
0.0093750004 0.002808912 0.0378864
0.0092249997 0.002808912 0.0380762
0.009075 0.002808912 0.038258702
0.0089250002 0.002808912 0.038404699
0.0087750005 0.002808912 0.038601801
0.0086249998 0.002808912 0.038828101
0.008475 0.002808912 0.038901102
0.0083250003 0.002808912 0.039076298
0.0081749996 0.002808912 0.039244201
0.0080249999 0.002808912 0.039390199
0.0078750001 0.002808912 0.039507002
0.0077249999 0.002808912 0.039631099
0.0075750002 0.002808912 0.039755199
0.007425 0.002808912 0.039872002
0.0072750002 0.002808912 0.040039901
0.007125 0.002808912 0.040185899
0.0069749998 0.002808912 0.040288098
0.006825 0.002808912 0.040361099
0.0066749998 0.002808912 0.040404901
0.0065250001 0.002808912 0.0404852
0.0063749999 0.002808912 0.040587399
0.0062250001 0.002808912 0.040740699
0.0060749999 0.002808912 0.040821001
0.0059250002 0.002808912 0.040930498
0.005775 0.002808912 0.040996201
0.0056250002 0.002808912 0.041054599
0.005475 0.002808912 0.0411787
0.0053249998 0.002808912 0.041193299
0.0051750001 0.002808912 0.041273601
0.0050249998 0.002808912 0.041361202
0.0048750001 0.002808912 0.041470699
0.0047249999 0.002808912 0.041485298
0.0045750001 0.002808912 0.0415948
0.0044249999 0.002808912 0.041638602
0.0042750002 0.002808912 0.041645899
0.004125 0.002808912 0.041791901
0.0039750002 0.002808912 0.041813798
0.003825 0.002808912 0.041835699
0.003675 0.002808912 0.0419087
0.0035250001 0.002808912 0.0419598
0.0033750001 0.002808912 0.041988999
0.0032250001 0.002808912 0.042032801
0.0030749999 0.002808912 0.042069301
0.0029249999 0.002808912 0.042171501
0.0027749999 0.002808912 0.042208001
0.002625 0.002808912 0.0422226
0.002475 0.002808912 0.0422737
0.002325 0.002808912 0.042317498
0.002175 0.002808912 0.042332102
0.0020250001 0.002808912 0.042317498
0.001875 0.002808912 0.042390499
0.001725 0.002808912 0.042397801
0.001575 0.002808912 0.042427
0.001425 0.002808912 0.0424635
0.001275 0.002808912 0.042492699
0.001125 0.002808912 0.042536501
0.00097499997 0.002808912 0.0425511
0.000825 0.002808912 0.042529199
0.00067500002 0.002808912 0.042536501
0.00052499998 0.002808912 0.042573001
0.000375 0.002808912 0.042587601
0.000225 0.002808912 0.042624101
7.5000004e-05 0.002808912 0.042660601
-7.5000004e-05 0.002808912 0.0426898
-0.000225 0.002808912 0.042675201
-0.000375 0.002808912 0.042631399
-0.00052499998 0.002808912 0.0426022
-0.00067500002 0.002808912 0.042616799
-0.000825 0.002808912 0.042594898
-0.00097499997 0.002808912 0.0425657
-0.001125 0.002808912 0.042558402
-0.001275 0.002808912 0.042492699
-0.001425 0.002808912 0.042492699
-0.001575 0.002808912 0.042485401
-0.001725 0.002808912 0.042427
-0.001875 0.002808912 0.042448901
-0.0020250001 0.002808912 0.042456198
-0.002175 0.002808912 0.0423759
-0.002325 0.002808912 0.0423613
-0.002475 0.002808912 0.042346701
-0.002625 0.002808912 0.042353999
-0.0027749999 0.002808912 0.0422883
-0.0029249999 0.002808912 0.042244501
-0.0030749999 0.002808912 0.042215299
-0.0032250001 0.002808912 0.042178798
-0.0033750001 0.002808912 0.042178798
-0.0035250001 0.002808912 0.042076599
-0.003675 0.002808912 0.042025499
-0.003825 0.002808912 0.041981701
-0.0039750002 0.002808912 0.0419452
-0.004125 0.002808912 0.041879501
-0.0042750002 0.002808912 0.0418065
-0.0044249999 0.002808912 0.041748099
-0.0045750001 0.002808912 0.0416678
-0.0047249999 0.002808912 0.041653201
-0.0048750001 0.002808912 0.041565601
-0.0050249998 0.002808912 0.041499902
-0.0051750001 0.002808912 0.041448802
-0.0053249998 0.002808912 0.041405
-0.005475 0.002808912 0.041331999
-0.0056250002 0.002808912 0.041244399
-0.005775 0.002808912 0.0411641
-0.0059250002 0.002808912 0.041113
-0.0060749999 0.002808912 0.041091099
-0.0062250001 0.002808912 0.040959701
-0.0063749999 0.002808912 0.040864799
-0.0065250001 0.002808912 0.040769901
-0.0066749998 0.002808912 0.040689599
-0.006825 0.002808912 0.0406093
-0.0069749998 0.002808912 0.040507101
-0.007125 0.002808912 0.040397599
-0.0072750002 0.002808912 0.0402808
-0.007425 0.002808912 0.0401932
-0.0075750002 0.002808912 0.040047199
-0.0077249999 0.002808912 0.039901201
-0.0078750001 0.002808912 0.039755199
-0.0080249999 0.002808912 0.039609201
-0.0081749996 0.002808912 0.0394997
-0.0083250003 0.002808912 0.039317202
-0.008475 0.002808912 0.039207701
-0.0086249998 0.002808912 0.039003301
-0.0087750005 0.002808912 0.038798898
-0.0089250002 0.002808912 0.038631
-0.009075 0.002808912 0.0384923
-0.0092249997 0.002808912 0.038309801
-0.0093750004 0.002808912 0.038090799
-0.0095250001 0.002808912 0.0378864
-0.0096749999 0.002808912 0.037711199
-0.0098249996 0.002808912 0.037484899
-0.0099750003 0.002808912 0.037214801
-0.010125 0.002808912 0.036944699
-0.010275 0.002808912 0.0366746
-0.010425 0.002808912 0.036324199
-0.010575 0.002808912 0.035849702
-0.010725 0.002808912 -inf
-0.010875 0.002808912 -inf
-0.011025 0.002808912 -inf
-0.011175 0.002808912 -inf
-0.011325 0.002808912 -inf
-0.011475 0.002808912 -inf
-0.011625 0.002808912 -inf
-0.011775 0.002808912 -inf
-0.011925 0.002808912 -inf
-0.012075 0.002808912 -inf
-0.012225 0.002808912 -inf
-0.012375 0.002808912 -inf
-0.012525 0.002808912 -inf
-0.012675 0.002808912 -inf
-0.012825 0.002808912 -inf
-0.012975 0.002808912 -inf
-0.013125 0.002808912 -inf
-0.013275 0.002808912 0.0196802
-0.013425 0.002808912 0.021096401
-0.013575 0.002808912 0.0215344
-0.013725 0.002808912 0.0215709
-0.013875 0.002808912 0.0206
-0.014025 0.002808912 0.018504901
-0.014175 0.002808912 0.016329501
-0.014325 0.002808912 0.0153221
-0.014475 0.002808912 0.021607401
-0.014625 0.002808912 0.021556299
-0.014775 0.002808912 0.0214979
-0.014925 0.002808912 0.021424901
-0.015075 0.002808912 0.0213957
-0.015225 0.002808912 0.021373799
-0.015375 0.002808912 0.0213446
-0.015525 0.002808912 0.021278899
-0.015675001 0.002808912 0.0212132
-0.015825 0.002808912 0.0211621
-0.015975 0.002808912 0.0211183
-0.016124999 0.002808912 0.021059901
-0.016275 0.002808912 0.0209796
-0.016425001 0.002808912 0.0209723
-0.016574999 0.002808912 0.020957701
-0.016725 0.002808912 0.020782501
-0.016875001 0.002808912 0.020687601
-0.017024999 0.002808912 0.0205562
-0.017175 0.002808912 0.0205124
-0.017325001 0.002808912 0.020497801
-0.017475 0.002808912 0.020446699
-0.017625 0.002808912 0.020359101
-0.017774999 0.002808912 0.0202861
-0.017925 0.002808912 0.0202423
-0.018075 0.002808912 0.020169299
-0.018224999 0.002808912 0.020074399
-0.018375 0.002808912 0.019979499
-0.018525001 0.002808912 0.0199138
-0.018674999 0.002808912 0.0198262
-0.018825 0.002808912 0.019760501
-0.018975001 0.002808912 0.0196729
-0.019125 0.002808912 0.0195561
-0.019275 0.002808912 0.019483101
-0.019424999 0.002808912 0.019483101
-0.019575 0.002808912 0.0193517
-0.019725 0.002808912 0.0193517
-0.019874999 0.002808912 0.019344401
-0.020025 0.002808912 0.019300601
-0.020175001 0.002808912 0.0193079
-0.020324999 0.002808912 0.019344401
-0.020475 0.002808912 0.0193955
-0.020625001 0.002808912 0.0194466
-0.020775 0.002808912 0.019468499
-0.020925 0.002808912 0.0194539
-0.021074999 0.002808912 0.019505
-0.021225 0.002808912 0.0195999
-0.021375 0.002808912 0.019607199
-0.021524999 0.002808912 0.019724
-0.021675 0.002808912 0.019702099
-0.021825001 0.002808912 0.019760501
-0.021974999 0.002808912 0.019745899
-0.022125 0.002808912 0.0197824
-0.022275001 0.002808912 0.0198627
-0.022425 0.002808912 0.019994101
-0.022575 0.002808912 0.019994101
-0.022724999 0.002808912 0.020023299
-0.022875 0.002808912 0.0200452
-0.023025 0.002808912 0.0201036
-0.023174999 0.002808912 0.020169299
-0.023325 0.002808912 0.020220401
-0.023475001 0.002808912 0.020264201
-0.023624999 0.002808912 0.020315301
-0.023775 0.002808912 0.0203737
-0.023925001 0.002808912 0.0203883
-0.024075 0.002808912 0.0204321
-0.024225 0.002808912 0.020454001
-0.024374999 0.002808912 0.020497801
-0.024525 0.002808912 0.020490499
-0.024675 0.002808912 0.0206146
-0.024824999 0.002808912 0.020585399
-0.024975 0.002808912 0.0205197
-0.025125001 0.002808912 0.020548901
-0.025274999 0.002808912 0.020490499
-0.025425 0.002808912 0.020395599
-0.025575001 0.002808912 0.0203372
-0.025725 0.002808912 0.0202788
-0.025875 0.002808912 0.020205799
-0.026024999 0.002808912 0.020132801
-0.026175 0.002808912 0.0200087
-0.026325 0.002808912 0.01987
-0.026474999 0.002808912 0.019745899
-0.026625 0.002808912 0.0196291
-0.026775001 0.002808912 0.0195342
-0.026924999 0.002808912 0.0194101
-0.027075 0.002808912 0.019249501
-0.027225001 0.002808912 0.0190889
-0.027375 0.002808912 0.0189429
-0.027525 0.002808912 0.0187969
-0.027674999 0.002808912 0.018687399
-0.027825 0.002808912 0.0184684
-0.027975 0.002808912 0.0182421
-0.028124999 0.002808912 0.0180231
-0.028275 0.002808912 0.0177749
-0.028425001 0.002808912 0.0174099
-0.028574999 0.002808912 0.017154399
-0.028725 0.002808912 -inf
-0.028875001 0.002808912 -inf
-0.029025 0.002808912 -inf
-0.029175 0.002808912 -inf
0.029175 0.003745253 -inf
0.029025 0.003745253 -inf
0.028875001 0.003745253 -inf
0.028725 0.003745253 -inf
0.028574999 0.003745253 -inf
0.028425001 0.003745253 -inf
0.028275 0.003745253 0.0170084
0.028124999 0.003745253 0.0174026
0.027975 0.003745253 0.017680001
0.027825 0.003745253 0.017950101
0.027674999 0.003745253 0.018191
0.027525 0.003745253 0.018402699
0.027375 0.003745253 0.0185779
0.027225001 0.003745253 0.018738501
0.027075 0.003745253 0.0188918
0.026924999 0.003745253 0.0190378
0.026775001 0.003745253 0.0191765
0.026625 0.003745253 0.0192203
0.026474999 0.003745253 0.0193079
0.026325 0.003745253 0.019432001
0.026175 0.003745253 0.0195853
0.026024999 0.003745253 0.019658299
0.025875 0.003745253 0.0196729
0.025725 0.003745253 0.019724
0.025575001 0.003745253 0.019789699
0.025425 0.003745253 0.019796999
0.025274999 0.003745253 0.019789699
0.025125001 0.003745253 0.019840799
0.024975 0.003745253 0.0198116
0.024824999 0.003745253 0.019760501
0.024675 0.003745253 0.019724
0.024525 0.003745253 0.019702099
0.024374999 0.003745253 0.019658299
0.024225 0.003745253 0.0196364
0.024075 0.003745253 0.019607199
0.023925001 0.003745253 0.019563399
0.023775 0.003745253 0.0195342
0.023624999 0.003745253 0.019505
0.023475001 0.003745253 0.0194977
0.023325 0.003745253 0.019483101
0.023174999 0.003745253 0.0193663
0.023025 0.003745253 0.0192641
0.022875 0.003745253 0.019249501
0.022724999 0.003745253 0.0192787
0.022575 0.003745253 0.019242199
0.022425 0.003745253 0.0191327
0.022275001 0.003745253 0.019161901
0.022125 0.003745253 0.019096199
0.021974999 0.003745253 0.019110801
0.021825001 0.003745253 0.0190816
0.021675 0.003745253 0.019067001
0.021524999 0.003745253 0.019103499
0.021375 0.003745253 0.0190889
0.021225 0.003745253 0.0190378
0.021074999 0.003745253 0.018994
0.020925 0.003745253 0.0190013
0.020775 0.003745253 0.0190451
0.020625001 0.003745253 0.019067001
0.020475 0.003745253 0.019096199
0.020324999 0.003745253 0.0191692
0.020175001 0.003745253 0.0192714
0.020025 0.003745253 0.0193225
0.019874999 0.003745253 0.019439301
0.019725 0.003745253 0.019519599
0.019575 0.003745253 0.019621801
0.019424999 0.003745253 0.0197386
0.019275 0.003745253 0.0198189
0.019125 0.003745253 0.019884599
0.018975001 0.003745253 0.019979499
0.018825 0.003745253 0.020081701
0.018674999 0.003745253 0.020067099
0.018525001 0.003745253 0.0201839
0.018375 0.003745253 0.020307999
0.018224999 0.003745253 0.0204248
0.018075 0.003745253 0.0204613
0.017925 0.003745253 0.0204832
0.017774999 0.003745253 0.0204759
0.017625 0.003745253 0.020548901
0.017475 0.003745253 0.0206584
0.017325001 0.003745253 0.020724099
0.017175 0.003745253 0.0208044
0.017024999 0.003745253 0.0208993
0.016875001 0.003745253 0.0209723
0.016725 0.003745253 0.0210745
0.016574999 0.003745253 0.021045299
0.016425001 0.003745253 0.021045299
0.016275 0.003745253 0.0211183
0.016124999 0.003745253 0.021227799
0.015975 0.003745253 0.021271599
0.015825 0.003745253 0.021322699
0.015675001 0.003745253 0.021373799
0.015525 0.003745253 0.0214322
0.015375 0.003745253 0.0214979
0.015225 0.003745253 0.021548999
0.015075 0.003745253 0.0216293
0.014925 0.003745253 0.021643899
0.014775 0.003745253 0.021658501
0.014625 0.003745253 0.0217096
0.014475 0.003745253 0.021782599
0.014325 0.003745253 0.0218191
0.014175 0.003745253 0.021877499
0.014025 0.003745253 0.021928599
0.013875 0.003745253 0.021965099
0.013725 0.003745253 0.022016199
0.013575 0.003745253 0.022074601
0.013425 0.003745253 0.022111099
0.013275 0.003745253 0.0221403
0.013125 0.003745253 0.022154899
0.012975 0.003745253 0.022016199
0.012825 0.003745253 0.0206511
0.012675 0.003745253 -inf
0.012525 0.003745253 -inf
0.012375 0.003745253 -inf
0.012225 0.003745253 -inf
0.012075 0.003745253 -inf
0.011925 0.003745253 -inf
0.011775 0.003745253 -inf
0.011625 0.003745253 -inf
0.011475 0.003745253 -inf
0.011325 0.003745253 -inf
0.011175 0.003745253 -inf
0.011025 0.003745253 -inf
0.010875 0.003745253 -inf
0.010725 0.003745253 -inf
0.010575 0.003745253 -inf
0.010425 0.003745253 -inf
0.010275 0.003745253 -inf
0.010125 0.003745253 -inf
0.0099750003 0.003745253 -inf
0.0098249996 0.003745253 -inf
0.0096749999 0.003745253 0.0360322
0.0095250001 0.003745253 0.036295
0.0093750004 0.003745253 0.036579698
0.0092249997 0.003745253 0.036805999
0.009075 0.003745253 0.037112601
0.0089250002 0.003745253 0.037258599
0.0087750005 0.003745253 0.0375579
0.0086249998 0.003745253 0.037703902
0.008475 0.003745253 0.037944801
0.0083250003 0.003745253 0.038105398
0.0081749996 0.003745253 0.038222201
0.0080249999 0.003745253 0.038382798
0.0078750001 0.003745253 0.0385653
0.0077249999 0.003745253 0.0387186
0.0075750002 0.003745253 0.0388427
0.007425 0.003745253 0.039010599
0.0072750002 0.003745253 0.0391347
0.007125 0.003745253 0.0392588
0.0069749998 0.003745253 0.039368302
0.006825 0.003745253 0.0394997
0.0066749998 0.003745253 0.039616499
0.0065250001 0.003745253 0.039667599
0.0063749999 0.003745253 0.039769799
0.0062250001 0.003745253 0.039908499
0.0060749999 0.003745253 0.040039901
0.0059250002 0.003745253 0.040149398
0.005775 0.003745253 0.040236998
0.0056250002 0.003745253 0.040339202
0.005475 0.003745253 0.040361099
0.0053249998 0.003745253 0.0404195
0.0051750001 0.003745253 0.040456001
0.0050249998 0.003745253 0.0405582
0.0048750001 0.003745253 0.040718801
0.0047249999 0.003745253 0.040740699
0.0045750001 0.003745253 0.040821001
0.0044249999 0.003745253 0.0409013
0.0042750002 0.003745253 0.0409378
0.004125 0.003745253 0.041003499
0.0039750002 0.003745253 0.041113
0.003825 0.003745253 0.041134901
0.003675 0.003745253 0.041186001
0.0035250001 0.003745253 0.041244399
0.0033750001 0.003745253 0.041295499
0.0032250001 0.003745253 0.0413174
0.0030749999 0.003745253 0.041383099
0.0029249999 0.003745253 0.041448802
0.0027749999 0.003745253 0.041507199
0.002625 0.003745253 0.041558299
0.002475 0.003745253 0.041587502
0.002325 0.003745253 0.0415948
0.002175 0.003745253 0.041623998
0.0020250001 0.003745253 0.041711599
0.001875 0.003745253 0.041726202
0.001725 0.003745253 0.0417189
0.001575 0.003745253 0.041740801
0.001425 0.003745253 0.041777302
0.001275 0.003745253 0.041828401
0.001125 0.003745253 0.041864902
0.00097499997 0.003745253 0.0418576
0.000825 0.003745253 0.041843001
0.00067500002 0.003745253 0.0418722
0.00052499998 0.003745253 0.041916002
0.000375 0.003745253 0.041974399
0.000225 0.003745253 0.042025499
7.5000004e-05 0.003745253 0.042032801
-7.5000004e-05 0.003745253 0.041988999
-0.000225 0.003745253 0.0419452
-0.000375 0.003745253 0.041952498
-0.00052499998 0.003745253 0.041937899
-0.00067500002 0.003745253 0.041894101
-0.000825 0.003745253 0.0418722
-0.00097499997 0.003745253 0.041901398
-0.001125 0.003745253 0.041894101
-0.001275 0.003745253 0.041850299
-0.001425 0.003745253 0.041813798
-0.001575 0.003745253 0.0418065
-0.001725 0.003745253 0.041835699
-0.001875 0.003745253 0.041784599
-0.0020250001 0.003745253 0.041748099
-0.002175 0.003745253 0.0417189
-0.002325 0.003745253 0.041675098
-0.002475 0.003745253 0.041645899
-0.002625 0.003745253 0.041653201
-0.0027749999 0.003745253 0.0416313
-0.0029249999 0.003745253 0.0415802
-0.0030749999 0.003745253 0.041507199
-0.0032250001 0.003745253 0.0414561
-0.0033750001 0.003745253 0.041419599
-0.0035250001 0.003745253 0.041426901
-0.003675 0.003745253 0.0413028
-0.003825 0.003745253 0.0412517
-0.0039750002 0.003745253 0.0412517
-0.004125 0.003745253 0.041120298
-0.0042750002 0.003745253 0.041054599
-0.0044249999 0.003745253 0.041010801
-0.0045750001 0.003745253 0.040966999
-0.0047249999 0.003745253 0.040879399
-0.0048750001 0.003745253 0.040784501
-0.0050249998 0.003745253 0.0407626
-0.0051750001 0.003745253 0.0406969
-0.0053249998 0.003745253 0.0406093
-0.005475 0.003745253 0.040529002
-0.0056250002 0.003745253 0.040426798
-0.005775 0.003745253 0.040361099
-0.0059250002 0.003745253 0.040317301
-0.0060749999 0.003745253 0.040229701
-0.0062250001 0.003745253 0.040134799
-0.0063749999 0.003745253 0.040039901
-0.0065250001 0.003745253 0.039937701
-0.0066749998 0.003745253 0.039835501
-0.006825 0.003745253 0.039747901
-0.0069749998 0.003745253 0.039667599
-0.007125 0.003745253 0.039485101
-0.0072750002 0.003745253 0.0393245
-0.007425 0.003745253 0.039251499
-0.0075750002 0.003745253 0.039149299
-0.0077249999 0.003745253 0.038974099
-0.0078750001 0.003745253 0.038849998
-0.0080249999 0.003745253 0.0386675
-0.0081749996 0.003745253 0.038557999
-0.0083250003 0.003745253 0.038382798
-0.008475 0.003745253 0.038185701
-0.0086249998 0.003745253 0.037995901
-0.0087750005 0.003745253 0.0377842
-0.0089250002 0.003745253 0.037535999
-0.009075 0.003745253 0.037309699
-0.0092249997 0.003745253 0.037127201
-0.0093750004 0.003745253 0.036922801
-0.0095250001 0.003745253 0.0366381
-0.0096749999 0.003745253 -inf
-0.0098249996 0.003745253 -inf
-0.0099750003 0.003745253 -inf
-0.010125 0.003745253 -inf
-0.010275 0.003745253 -inf
-0.010425 0.003745253 -inf
-0.010575 0.003745253 -inf
-0.010725 0.003745253 -inf
-0.010875 0.003745253 -inf
-0.011025 0.003745253 -inf
-0.011175 0.003745253 -inf
-0.011325 0.003745253 -inf
-0.011475 0.003745253 -inf
-0.011625 0.003745253 -inf
-0.011775 0.003745253 -inf
-0.011925 0.003745253 -inf
-0.012075 0.003745253 -inf
-0.012225 0.003745253 -inf
-0.012375 0.003745253 -inf
-0.012525 0.003745253 -inf
-0.012675 0.003745253 -inf
-0.012825 0.003745253 -inf
-0.012975 0.003745253 -inf
-0.013125 0.003745253 -inf
-0.013275 0.003745253 0.019796999
-0.013425 0.003745253 0.0219432
-0.013575 0.003745253 0.0218994
-0.013725 0.003745253 0.0218191
-0.013875 0.003745253 0.0205708
-0.014025 0.003745253 0.018337
-0.014175 0.003745253 0.021687699
-0.014325 0.003745253 0.0216731
-0.014475 0.003745253 0.0216293
-0.014625 0.003745253 0.021548999
-0.014775 0.003745253 0.0214833
-0.014925 0.003745253 0.021468701
-0.015075 0.003745253 0.0214468
-0.015225 0.003745253 0.021366499
-0.015375 0.003745253 0.0213081
-0.015525 0.003745253 0.021235101
-0.015675001 0.003745253 0.0211548
-0.015825 0.003745253 0.0210745
-0.015975 0.003745253 0.0210161
-0.016124999 0.003745253 0.020957701
-0.016275 0.003745253 0.0209285
-0.016425001 0.003745253 0.0208847
-0.016574999 0.003745253 0.020855499
-0.016725 0.003745253 0.0207022
-0.016875001 0.003745253 0.020687601
-0.017024999 0.003745253 0.020592701
-0.017175 0.003745253 0.0205197
-0.017325001 0.003745253 0.020454001
-0.017475 0.003745253 0.0203737
-0.017625 0.003745253 0.0202861
-0.017774999 0.003745253 0.020213099
-0.017925 0.003745253 0.0201401
-0.018075 0.003745253 0.0200963
-0.018224999 0.003745253 0.020030599
-0.018375 0.003745253 0.0199211
-0.018525001 0.003745253 0.019848101
-0.018674999 0.003745253 0.0197751
-0.018825 0.003745253 0.019702099
-0.018975001 0.003745253 0.019614501
-0.019125 0.003745253 0.019512299
-0.019275 0.003745253 0.019468499
-0.019424999 0.003745253 0.019432001
-0.019575 0.003745253 0.0193152
-0.019725 0.003745253 0.019205701
-0.019874999 0.003745253 0.019161901
-0.020025 0.003745253 0.0191692
-0.020175001 0.003745253 0.0191765
-0.020324999 0.003745253 0.019198401
-0.020475 0.003745253 0.019285999
-0.020625001 0.003745253 0.0193152
-0.020775 0.003745253 0.019300601
-0.020925 0.003745253 0.0193663
-0.021074999 0.003745253 0.0194174
-0.021225 0.003745253 0.019519599
-0.021375 0.003745253 0.0195488
-0.021524999 0.003745253 0.019614501
-0.021675 0.003745253 0.019614501
-0.021825001 0.003745253 0.019621801
-0.021974999 0.003745253 0.0196802
-0.022125 0.003745253 0.019753199
-0.022275001 0.003745253 0.019804301
-0.022425 0.003745253 0.019855401
-0.022575 0.003745253 0.019884599
-0.022724999 0.003745253 0.0199649
-0.022875 0.003745253 0.0200014
-0.023025 0.003745253 0.020023299
-0.023174999 0.003745253 0.0200525
-0.023325 0.003745253 0.0201109
-0.023475001 0.003745253 0.0201839
-0.023624999 0.003745253 0.0202277
-0.023775 0.003745253 0.0202861
-0.023925001 0.003745253 0.0202934
-0.024075 0.003745253 0.020307999
-0.024225 0.003745253 0.020351799
-0.024374999 0.003745253 0.0203664
-0.024525 0.003745253 0.0204248
-0.024675 0.003745253 0.020395599
-0.024824999 0.003745253 0.0204686
-0.024975 0.003745253 0.020410201
-0.025125001 0.003745253 0.020359101
-0.025274999 0.003745253 0.020315301
-0.025425 0.003745253 0.0202423
-0.025575001 0.003745253 0.020161999
-0.025725 0.003745253 0.0200598
-0.025875 0.003745253 0.019935699
-0.026024999 0.003745253 0.0198189
-0.026175 0.003745253 0.019716701
-0.026325 0.003745253 0.0196291
-0.026474999 0.003745253 0.019512299
-0.026625 0.003745253 0.019373599
-0.026775001 0.003745253 0.0192276
-0.026924999 0.003745253 0.019096199
-0.027075 0.003745253 0.0189867
-0.027225001 0.003745253 0.0188407
-0.027375 0.003745253 0.018702
-0.027525 0.003745253 0.0186071
-0.027674999 0.003745253 0.018358899
-0.027825 0.003745253 0.018132599
-0.027975 0.003745253 0.017942799
-0.028124999 0.003745253 0.0177019
-0.028275 0.003745253 0.017336899
-0.028425001 0.003745253 0.0169865
-0.028574999 0.003745253 -inf
-0.028725 0.003745253 -inf
-0.028875001 0.003745253 -inf
-0.029025 0.003745253 -inf
-0.029175 0.003745253 -inf
0.029175 0.0046815942 -inf
0.029025 0.0046815942 -inf
0.028875001 0.0046815942 -inf
0.028725 0.0046815942 -inf
0.028574999 0.0046815942 -inf
0.028425001 0.0046815942 -inf
0.028275 0.0046815942 -inf
0.028124999 0.0046815942 -inf
0.027975 0.0046815942 0.016884301
0.027825 0.0046815942 0.0171836
0.027674999 0.0046815942 0.017482899
0.027525 0.0046815942 0.0177311
0.027375 0.0046815942 0.017957401
0.027225001 0.0046815942 0.018139901
0.027075 0.0046815942 0.0182932
0.026924999 0.0046815942 0.0184392
0.026775001 0.0046815942 0.0185779
0.026625 0.0046815942 0.018723899
0.026474999 0.0046815942 0.018818799
0.026325 0.0046815942 0.018913699
0.026175 0.0046815942 0.018972101
0.026024999 0.0046815942 0.0190232
0.025875 0.0046815942 0.019103499
0.025725 0.0046815942 0.019161901
0.025575001 0.0046815942 0.019213
0.025425 0.0046815942 0.019249501
0.025274999 0.0046815942 0.0192641
0.025125001 0.0046815942 0.0192787
0.024975 0.0046815942 0.0192203
0.024824999 0.0046815942 0.019249501
0.024675 0.0046815942 0.019293301
0.024525 0.0046815942 0.019249501
0.024374999 0.0046815942 0.019191099
0.024225 0.0046815942 0.019103499
0.024075 0.0046815942 0.019103499
0.023925001 0.0046815942 0.019096199
0.023775 0.0046815942 0.019015901
0.023624999 0.0046815942 0.0190013
0.023475001 0.0046815942 0.019015901
0.023325 0.0046815942 0.0190013
0.023174999 0.0046815942 0.018957499
0.023025 0.0046815942 0.018928301
0.022875 0.0046815942 0.0188991
0.022724999 0.0046815942 0.018848
0.022575 0.0046815942 0.018826099
0.022425 0.0046815942 0.0188042
0.022275001 0.0046815942 0.0187166
0.022125 0.0046815942 0.0187604
0.021974999 0.0046815942 0.0187166
0.021825001 0.0046815942 0.0187531
0.021675 0.0046815942 0.018694701
0.021524999 0.0046815942 0.018680099
0.021375 0.0046815942 0.018694701
0.021225 0.0046815942 0.018731199
0.021074999 0.0046815942 0.0187677
0.020925 0.0046815942 0.018782301
0.020775 0.0046815942 0.0188042
0.020625001 0.0046815942 0.0188991
0.020475 0.0046815942 0.0190305
0.020324999 0.0046815942 0.019161901
0.020175001 0.0046815942 0.0192787
0.020025 0.0046815942 0.019249501
0.019874999 0.0046815942 0.019388201
0.019725 0.0046815942 0.0194904
0.019575 0.0046815942 0.019512299
0.019424999 0.0046815942 0.019607199
0.019275 0.0046815942 0.019753199
0.019125 0.0046815942 0.0198773
0.018975001 0.0046815942 0.019979499
0.018825 0.0046815942 0.020067099
0.018674999 0.0046815942 0.020067099
0.018525001 0.0046815942 0.020118199
0.018375 0.0046815942 0.020205799
0.018224999 0.0046815942 0.0203299
0.018075 0.0046815942 0.020381
0.017925 0.0046815942 0.020395599
0.017774999 0.0046815942 0.020497801
0.017625 0.0046815942 0.0206073
0.017475 0.0046815942 0.020672999
0.017325001 0.0046815942 0.0207387
0.017175 0.0046815942 0.020811699
0.017024999 0.0046815942 0.0209285
0.016875001 0.0046815942 0.0209869
0.016725 0.0046815942 0.021008801
0.016574999 0.0046815942 0.021052601
0.016425001 0.0046815942 0.021132899
0.016275 0.0046815942 0.021198601
0.016124999 0.0046815942 0.0212132
0.015975 0.0046815942 0.021242401
0.015825 0.0046815942 0.021286201
0.015675001 0.0046815942 0.021330001
0.015525 0.0046815942 0.021410299
0.015375 0.0046815942 0.021476001
0.015225 0.0046815942 0.021519801
0.015075 0.0046815942 0.021607401
0.014925 0.0046815942 0.0215928
0.014775 0.0046815942 0.021789899
0.014625 0.0046815942 0.021768
0.014475 0.0046815942 0.021833699
0.014325 0.0046815942 0.0218191
0.014175 0.0046815942 0.0218191
0.014025 0.0046815942 0.021841001
0.013875 0.0046815942 0.021892101
0.013725 0.0046815942 0.021965099
0.013575 0.0046815942 0.022067299
0.013425 0.0046815942 0.022133
0.013275 0.0046815942 0.0221403
0.013125 0.0046815942 0.022169501
0.012975 0.0046815942 0.0224177
0.012825 0.0046815942 0.023695201
0.012675 0.0046815942 0.0249216
0.012525 0.0046815942 -inf
0.012375 0.0046815942 -inf
0.012225 0.0046815942 -inf
0.012075 0.0046815942 -inf
0.011925 0.0046815942 -inf
0.011775 0.0046815942 -inf
0.011625 0.0046815942 -inf
0.011475 0.0046815942 -inf
0.011325 0.0046815942 -inf
0.011175 0.0046815942 -inf
0.011025 0.0046815942 -inf
0.010875 0.0046815942 -inf
0.010725 0.0046815942 -inf
0.010575 0.0046815942 -inf
0.010425 0.0046815942 -inf
0.010275 0.0046815942 -inf
0.010125 0.0046815942 -inf
0.0099750003 0.0046815942 -inf
0.0098249996 0.0046815942 -inf
0.0096749999 0.0046815942 -inf
0.0095250001 0.0046815942 -inf
0.0093750004 0.0046815942 -inf
0.0092249997 0.0046815942 -inf
0.009075 0.0046815942 -inf
0.0089250002 0.0046815942 -inf
0.0087750005 0.0046815942 0.0361563
0.0086249998 0.0046815942 0.036302298
0.008475 0.0046815942 0.036587
0.0083250003 0.0046815942 0.036820602
0.0081749996 0.0046815942 0.036973901
0.0080249999 0.0046815942 0.037200201
0.0078750001 0.0046815942 0.037353501
0.0077249999 0.0046815942 0.037565202
0.0075750002 0.0046815942 0.0377331
0.007425 0.0046815942 0.037930202
0.0072750002 0.0046815942 0.038054299
0.007125 0.0046815942 0.038171101
0.0069749998 0.0046815942 0.038265999
0.006825 0.0046815942 0.038419299
0.0066749998 0.0046815942 0.038594499
0.0065250001 0.0046815942 0.038674802
0.0063749999 0.0046815942 0.038747799
0.0062250001 0.0046815942 0.038901102
0.0060749999 0.0046815942 0.039061699
0.0059250002 0.0046815942 0.039127398
0.005775 0.0046815942 0.039229602
0.0056250002 0.0046815942 0.0393099
0.005475 0.0046815942 0.039434001
0.0053249998 0.0046815942 0.0395508
0.0051750001 0.0046815942 0.039594602
0.0050249998 0.0046815942 0.039682198
0.0048750001 0.0046815942 0.039784402
0.0047249999 0.0046815942 0.0398793
0.0045750001 0.0046815942 0.0399523
0.0044249999 0.0046815942 0.039996099
0.0042750002 0.0046815942 0.040091
0.004125 0.0046815942 0.040178601
0.0039750002 0.0046815942 0.040236998
0.003825 0.0046815942 0.0402808
0.003675 0.0046815942 0.040361099
0.0035250001 0.0046815942 0.040412199
0.0033750001 0.0046815942 0.0404195
0.0032250001 0.0046815942 0.040456001
0.0030749999 0.0046815942 0.0405217
0.0029249999 0.0046815942 0.040587399
0.0027749999 0.0046815942 0.040645801
0.002625 0.0046815942 0.0406969
0.002475 0.0046815942 0.040718801
0.002325 0.0046815942 0.0407991
0.002175 0.0046815942 0.0408502
0.0020250001 0.0046815942 0.040857501
0.001875 0.0046815942 0.040864799
0.001725 0.0046815942 0.0409013
0.001575 0.0046815942 0.040952399
0.001425 0.0046815942 0.0409889
0.001275 0.0046815942 0.0410254
0.001125 0.0046815942 0.041047301
0.00097499997 0.0046815942 0.041091099
0.000825 0.0046815942 0.041142199
0.00067500002 0.0046815942 0.041149501
0.00052499998 0.0046815942 0.041156799
0.000375 0.0046815942 0.0412152
0.000225 0.0046815942 0.041258998
7.5000004e-05 0.0046815942 0.041288201
-7.5000004e-05 0.0046815942 0.041258998
-0.000225 0.0046815942 0.041186001
-0.000375 0.0046815942 0.041149501
-0.00052499998 0.0046815942 0.041134901
-0.00067500002 0.0046815942 0.041149501
-0.000825 0.0046815942 0.041083802
-0.00097499997 0.0046815942 0.041098401
-0.001125 0.0046815942 0.0410765
-0.001275 0.0046815942 0.041032702
-0.001425 0.0046815942 0.041047301
-0.001575 0.0046815942 0.041003499
-0.001725 0.0046815942 0.040959701
-0.001875 0.0046815942 0.040930498
-0.0020250001 0.0046815942 0.040966999
