# .PCD v0.7 - Point Cloud Data file format
VERSION 0.7
FIELDS x y z
SIZE 4 4 4
TYPE F F F
COUNT 1 1 1
WIDTH 1414
HEIGHT 1
VIEWPOINT 0 0 0 1 0 0 0
POINTS 1414
DATA ascii
-0.053399999 -0.012640291 0.0188115
-0.053550001 -0.012640291 0.018833401
-0.0537 -0.012640291 0.0187604
-0.053849999 -0.012640291 0.0188626
-0.054000001 -0.012640291 0.0188626
-0.05415 -0.012640291 0.018848
-0.054299999 -0.012640291 0.0188845
-0.054450002 -0.012640291 0.018928301
-0.0546 -0.012640291 0.0188991
-0.054749999 -0.012640291 0.0189064
-0.054900002 -0.012640291 0.018921001
-0.055050001 -0.012640291 0.0189064
-0.055199999 -0.012640291 0.0189064
-0.055349998 -0.012640291 0.0189356
-0.055500001 -0.012640291 0.0189356
-0.05565 -0.012640291 0.0189356
-0.055799998 -0.012640291 0.0189356
-0.055950001 -0.012640291 0.0189794
-0.0561 -0.012640291 0.0190451
-0.056249999 -0.012640291 0.019067001
-0.056400001 -0.012640291 0.019008599
-0.05655 -0.012640291 0.019052399
-0.056699999 -0.012640291 0.019103499
-0.056850001 -0.012640291 0.019067001
-0.057 -0.012640291 0.019059701
-0.057149999 -0.012640291 0.019103499
-0.057300001 -0.012640291 0.0191181
-0.05745 -0.012640291 0.01914
-0.057599999 -0.012640291 0.019110801
-0.057750002 -0.012640291 0.019103499
-0.0579 -0.012640291 0.0191254
-0.058049999 -0.012640291 0.0191181
-0.058200002 -0.012640291 0.0191254
-0.058350001 -0.012640291 0.0191692
-0.058499999 -0.012640291 0.0191765
-0.058649998 -0.012640291 0.019213
-0.058800001 -0.012640291 0.0192641
-0.05895 -0.012640291 -inf
-0.059099998 -0.012640291 -inf
-0.059250001 -0.012640291 -inf
-0.0594 -0.012640291 -inf
-0.059549998 -0.012640291 -inf
-0.059700001 -0.012640291 -inf
-0.05985 -0.012640291 -inf
-0.059999999 -0.012640291 -inf
-0.060150001 -0.012640291 -inf
-0.0603 -0.012640291 -inf
-0.060449999 -0.012640291 -inf
-0.060600001 -0.012640291 -inf
-0.06075 -0.012640291 -inf
-0.060899999 -0.012640291 -inf
0.060899999 -0.01170395 -inf
0.06075 -0.01170395 -inf
0.060600001 -0.01170395 -inf
0.060449999 -0.01170395 -inf
0.0603 -0.01170395 -inf
0.060150001 -0.01170395 -inf
0.059999999 -0.01170395 -inf
0.05985 -0.01170395 -inf
0.059700001 -0.01170395 -inf
0.059549998 -0.01170395 0.019052399
0.0594 -0.01170395 0.0188407
0.059250001 -0.01170395 0.018774999
0.059099998 -0.01170395 0.018694701
0.05895 -0.01170395 0.018650901
0.058800001 -0.01170395 0.0185633
0.058649998 -0.01170395 0.018629
0.058499999 -0.01170395 0.018585199
0.058350001 -0.01170395 0.0185633
0.058200002 -0.01170395 0.018556001
0.058049999 -0.01170395 0.0185341
0.0579 -0.01170395 0.018504901
0.057750002 -0.01170395 0.018497599
0.057599999 -0.01170395 0.0184903
0.05745 -0.01170395 0.0184903
0.057300001 -0.01170395 0.0184903
0.057149999 -0.01170395 0.0184757
0.057 -0.01170395 0.018483
0.056850001 -0.01170395 0.018461101
0.056699999 -0.01170395 0.018446499
0.05655 -0.01170395 0.018417301
0.056400001 -0.01170395 0.018366201
0.056249999 -0.01170395 0.0183881
0.0561 -0.01170395 0.018409999
0.055950001 -0.01170395 0.018358899
0.055799998 -0.01170395 0.0183443
0.05565 -0.01170395 0.018373501
0.055500001 -0.01170395 0.018315099
0.055349998 -0.01170395 0.0182421
0.055199999 -0.01170395 0.018227501
0.055050001 -0.01170395 0.018227501
0.054900002 -0.01170395 0.0182421
0.054749999 -0.01170395 0.0182567
0.0546 -0.01170395 0.0182421
0.054450002 -0.01170395 0.018227501
0.054299999 -0.01170395 0.018227501
0.05415 -0.01170395 0.018234801
0.054000001 -0.01170395 0.0182056
0.053849999 -0.01170395 0.0181472
0.0537 -0.01170395 0.018096101
0.053550001 -0.01170395 0.018139901
0.053399999 -0.01170395 0.018139901
0.05325 -0.01170395 0.0181472
0.053100001 -0.01170395 0.0181472
0.052949999 -0.01170395 0.018118
0.0528 -0.01170395 0.0181034
0.052650001 -0.01170395 0.018081499
0.052499998 -0.01170395 0.018088801
0.05235 -0.01170395 0.018081499
0.052200001 -0.01170395 0.018037699
0.052049998 -0.01170395 0.0180158
0.051899999 -0.01170395 0.0179793
0.051750001 -0.01170395 0.017957401
0.051600002 -0.01170395 0.017986599
0.051449999 -0.01170395 0.017972
0.0513 -0.01170395 0.017957401
0.051150002 -0.01170395 0.0179282
0.050999999 -0.01170395 0.017898999
0.05085 -0.01170395 0.0178698
0.050700001 -0.01170395 0.0178844
0.050549999 -0.01170395 0.017898999
0.0504 -0.01170395 0.017891699
0.050250001 -0.01170395 0.017847899
0.050099999 -0.01170395 0.017826
0.04995 -0.01170395 0.017847899
0.049800001 -0.01170395 0.017847899
0.049649999 -0.01170395 0.0178333
0.0495 -0.01170395 0.0178333
0.049350001 -0.01170395 0.017826
0.049199998 -0.01170395 0.017811401
0.04905 -0.01170395 0.0177822
0.048900001 -0.01170395 0.0177749
0.048749998 -0.01170395 0.017723801
0.048599999 -0.01170395 0.0177457
0.048450001 -0.01170395 0.017716501
0.048300002 -0.01170395 0.0176435
0.048149999 -0.01170395 0.017672701
0.048 -0.01170395 0.017665399
0.047850002 -0.01170395 0.017665399
0.047699999 -0.01170395 0.0176362
0.04755 -0.01170395 0.017614299
0.047400001 -0.01170395 0.017607
0.047249999 -0.01170395 0.0175997
0.0471 -0.01170395 0.017570499
0.046950001 -0.01170395 0.0175997
0.046799999 -0.01170395 0.017614299
0.04665 -0.01170395 0.0175924
0.046500001 -0.01170395 0.017577801
0.046349999 -0.01170395 0.0175632
0.0462 -0.01170395 0.017541301
0.046050001 -0.01170395 0.0175121
0.045899998 -0.01170395 0.017526699
0.04575 -0.01170395 0.0175632
0.045600001 -0.01170395 0.0175194
0.045449998 -0.01170395 0.017526699
0.045299999 -0.01170395 0.0175121
0.045150001 -0.01170395 0.017534001
0.045000002 -0.01170395 0.0175121
0.044849999 -0.01170395 0.0175048
0.0447 -0.01170395 0.0175121
0.044550002 -0.01170395 0.017475599
0.044399999 -0.01170395 0.017461
0.04425 -0.01170395 0.017461
0.044100001 -0.01170395 0.0174537
0.043949999 -0.01170395 0.017431799
0.0438 -0.01170395 0.0174026
0.043650001 -0.01170395 0.0174245
0.043499999 -0.01170395 0.017387999
0.04335 -0.01170395 0.017336899
0.043200001 -0.01170395 0.0173588
0.043049999 -0.01170395 0.0174026
0.0429 -0.01170395 0.0173296
0.042750001 -0.01170395 0.017336899
0.042599998 -0.01170395 0.0173588
0.04245 -0.01170395 0.0173661
0.042300001 -0.01170395 0.017315
0.042149998 -0.01170395 0.017307701
0.041999999 -0.01170395 0.0173223
0.041850001 -0.01170395 0.0173296
0.041700002 -0.01170395 0.017307701
0.041549999 -0.01170395 0.017249299
0.0414 -0.01170395 0.0172201
0.041250002 -0.01170395 0.017198199
0.041099999 -0.01170395 0.017242
0.04095 -0.01170395 0.0172858
0.040800001 -0.01170395 0.0172639
0.040649999 -0.01170395 0.0172201
0.0405 -0.01170395 0.017169001
0.040350001 -0.01170395 0.017205499
0.040199999 -0.01170395 0.0171836
0.04005 -0.01170395 0.017169001
0.039900001 -0.01170395 0.017169001
0.039749999 -0.01170395 0.017161701
0.0396 -0.01170395 0.0171471
0.039450001 -0.01170395 0.0171398
0.039299998 -0.01170395 0.0171325
0.03915 -0.01170395 0.0170814
0.039000001 -0.01170395 0.017066799
0.038849998 -0.01170395 0.017066799
0.038699999 -0.01170395 0.017110599
0.038550001 -0.01170395 0.017059499
0.038400002 -0.01170395 0.0170084
0.038249999 -0.01170395 0.017023001
0.0381 -0.01170395 0.0170376
0.037950002 -0.01170395 0.0170522
0.037799999 -0.01170395 0.0170449
0.03765 -0.01170395 0.0169938
0.037500001 -0.01170395 0.0169865
0.037349999 -0.01170395 0.0169938
0.0372 -0.01170395 0.016964599
0.037050001 -0.01170395 0.01695
0.036899999 -0.01170395 0.016971899
0.03675 -0.01170395 0.0169865
0.036600001 -0.01170395 0.016971899
0.036449999 -0.01170395 0.0169427
0.0363 -0.01170395 0.01695
0.036150001 -0.01170395 0.016928099
0.035999998 -0.01170395 0.016935401
0.03585 -0.01170395 0.016971899
0.035700001 -0.01170395 0.016891601
0.035549998 -0.01170395 0.0168989
0.035399999 -0.01170395 0.0168697
0.035250001 -0.01170395 0.0168551
0.035100002 -0.01170395 0.016891601
0.034949999 -0.01170395 0.0169062
0.0348 -0.01170395 0.016884301
0.034650002 -0.01170395 0.016884301
0.034499999 -0.01170395 0.016840501
0.03435 -0.01170395 0.0168551
0.034200002 -0.01170395 0.0168551
0.034049999 -0.01170395 0.0168551
0.0339 -0.01170395 0.016796701
0.033750001 -0.01170395 0.0168186
0.033599999 -0.01170395 0.016796701
0.03345 -0.01170395 0.0168186
0.033300001 -0.01170395 0.0168186
0.033149999 -0.01170395 0.0168113
0.033 -0.01170395 0.0168186
0.032850001 -0.01170395 0.016825899
0.032699998 -0.01170395 0.0168186
0.03255 -0.01170395 0.016840501
0.032400001 -0.01170395 0.016825899
0.032249998 -0.01170395 0.016796701
0.032099999 -0.01170395 0.016804
0.031950001 -0.01170395 0.016738299
0.031800002 -0.01170395 0.016731
0.031649999 -0.01170395 0.0168186
0.031500001 -0.01170395 0.0167675
0.031350002 -0.01170395 0.016745601
0.031199999 -0.01170395 0.016738299
0.03105 -0.01170395 0.016694499
0.0309 -0.01170395 0.0166799
0.030750001 -0.01170395 0.016694499
0.0306 -0.01170395 0.0167164
0.030449999 -0.01170395 0.016731
0.030300001 -0.01170395 0.0167091
0.03015 -0.01170395 0.0167091
0.029999999 -0.01170395 0.016701801
0.029850001 -0.01170395 0.016650699
0.0297 -0.01170395 0.016650699
0.029549999 -0.01170395 0.0166799
0.0294 -0.01170395 0.0166726
0.02925 -0.01170395 0.0165923
0.029100001 -0.01170395 0.016606901
0.02895 -0.01170395 0.016658001
0.0288 -0.01170395 0.0166288
0.028650001 -0.01170395 0.0165704
0.0285 -0.01170395 0.0165777
0.028349999 -0.01170395 0.0166215
0.028200001 -0.01170395 0.0166361
0.02805 -0.01170395 0.016614201
0.027899999 -0.01170395 0.016701801
0.02775 -0.01170395 0.016643399
0.0276 -0.01170395 0.0166726
0.027450001 -0.01170395 0.016643399
0.0273 -0.01170395 0.016563101
0.02715 -0.01170395 0.016606901
0.027000001 -0.01170395 0.0166361
0.02685 -0.01170395 0.016599599
0.026699999 -0.01170395 0.0165777
0.026550001 -0.01170395 0.0165923
0.0264 -0.01170395 0.016585
0.026249999 -0.01170395 0.0165777
0.0261 -0.01170395 0.016585
0.02595 -0.01170395 0.0165777
0.025800001 -0.01170395 0.016614201
0.02565 -0.01170395 0.0165704
0.0255 -0.01170395 0.0165704
0.025350001 -0.01170395 0.0165266
0.0252 -0.01170395 0.016519301
0.025049999 -0.01170395 0.016504699
0.024900001 -0.01170395 0.016519301
0.02475 -0.01170395 0.016519301
0.024599999 -0.01170395 0.016504699
0.02445 -0.01170395 0.0165339
0.0243 -0.01170395 0.016548499
0.024150001 -0.01170395 0.016548499
0.024 -0.01170395 0.016511999
0.02385 -0.01170395 0.016519301
0.023700001 -0.01170395 0.016519301
0.02355 -0.01170395 0.016475501
0.023399999 -0.01170395 0.0164828
0.023250001 -0.01170395 0.0164901
0.0231 -0.01170395 0.016511999
0.022949999 -0.01170395 0.016504699
0.0228 -0.01170395 0.0164974
0.02265 -0.01170395 0.0165412
0.022500001 -0.01170395 0.016555799
0.02235 -0.01170395 0.016519301
0.0222 -0.01170395 0.0165339
0.022050001 -0.01170395 0.016548499
0.0219 -0.01170395 0.016519301
0.021749999 -0.01170395 0.016504699
0.021600001 -0.01170395 0.0164974
0.02145 -0.01170395 0.016439
0.021299999 -0.01170395 0.0164463
0.02115 -0.01170395 0.016468201
0.021 -0.01170395 0.016475501
0.020850001 -0.01170395 0.016475501
0.0207 -0.01170395 0.016468201
0.02055 -0.01170395 0.016460899
0.020400001 -0.01170395 0.016424401
0.02025 -0.01170395 0.016468201
0.020099999 -0.01170395 0.016460899
0.019950001 -0.01170395 0.0164463
0.0198 -0.01170395 0.016365999
0.019649999 -0.01170395 0.0164536
0.0195 -0.01170395 0.016424401
0.01935 -0.01170395 0.0164463
0.019200001 -0.01170395 0.0164536
0.01905 -0.01170395 0.0164536
0.0189 -0.01170395 0.0164463
0.018750001 -0.01170395 0.016409799
0.0186 -0.01170395 0.016365999
0.018449999 -0.01170395 0.016380601
0.018300001 -0.01170395 0.0163952
0.01815 -0.01170395 0.0163952
0.017999999 -0.01170395 0.016373301
0.01785 -0.01170395 0.016365999
0.0177 -0.01170395 0.016417099
0.017550001 -0.01170395 0.016424401
0.0174 -0.01170395 0.0164317
0.01725 -0.01170395 0.0163587
0.017100001 -0.01170395 0.016380601
0.01695 -0.01170395 0.0163441
0.016799999 -0.01170395 0.016365999
0.016650001 -0.01170395 0.016409799
0.0165 -0.01170395 0.016409799
0.016349999 -0.01170395 0.016417099
0.0162 -0.01170395 0.0163879
0.01605 -0.01170395 0.016365999
0.015900001 -0.01170395 0.016460899
0.01575 -0.01170395 0.0164317
0.0156 -0.01170395 0.016417099
0.01545 -0.01170395 0.0163952
0.0153 -0.01170395 0.016424401
0.01515 -0.01170395 0.016439
0.015 -0.01170395 0.016365999
0.01485 -0.01170395 0.0163514
0.0147 -0.01170395 0.016373301
0.01455 -0.01170395 0.0163879
0.0144 -0.01170395 0.016380601
0.01425 -0.01170395 0.016329501
0.0141 -0.01170395 0.0163587
0.01395 -0.01170395 0.0163879
0.0138 -0.01170395 0.0163514
0.01365 -0.01170395 0.016409799
0.0135 -0.01170395 0.0164536
0.01335 -0.01170395 0.016439
0.0132 -0.01170395 0.0164536
0.01305 -0.01170395 0.016417099
0.0129 -0.01170395 0.016380601
0.01275 -0.01170395 0.016380601
0.0126 -0.01170395 0.0164025
0.01245 -0.01170395 0.016409799
0.0123 -0.01170395 0.0164025
0.01215 -0.01170395 0.016365999
0.012 -0.01170395 0.016424401
0.01185 -0.01170395 0.0163952
0.0117 -0.01170395 0.0163441
0.01155 -0.01170395 0.016365999
0.0114 -0.01170395 0.0163587
0.01125 -0.01170395 0.016373301
0.0111 -0.01170395 0.016373301
0.01095 -0.01170395 0.0163003
0.0108 -0.01170395 0.016285701
0.01065 -0.01170395 0.0163149
0.0105 -0.01170395 0.0163076
0.01035 -0.01170395 0.0163441
0.0102 -0.01170395 0.016373301
0.01005 -0.01170395 0.0163952
0.0098999999 -0.01170395 0.016322199
0.0097500002 -0.01170395 0.016322199
0.0096000005 -0.01170395 0.0163587
0.0094499998 -0.01170395 0.016365999
0.0093 -0.01170395 0.0163587
0.0091500003 -0.01170395 0.016322199
0.0089999996 -0.01170395 0.016336801
0.0088499999 -0.01170395 0.016380601
0.0087000001 -0.01170395 0.0164025
0.0085500004 -0.01170395 0.016424401
0.0083999997 -0.01170395 0.0164025
0.00825 -0.01170395 0.0164317
0.0081000002 -0.01170395 0.0163587
0.0079500005 -0.01170395 0.0163952
0.0077999998 -0.01170395 0.016365999
0.00765 -0.01170395 0.016380601
0.0074999998 -0.01170395 0.016380601
0.0073500001 -0.01170395 0.0163587
0.0071999999 -0.01170395 0.0163441
0.0070500001 -0.01170395 0.0163514
0.0068999999 -0.01170395 0.016373301
0.0067500002 -0.01170395 0.016409799
0.0066 -0.01170395 0.016439
0.0064500002 -0.01170395 0.016439
0.0063 -0.01170395 0.0163879
0.0061499998 -0.01170395 0.0163952
0.0060000001 -0.01170395 0.016409799
0.0058499998 -0.01170395 0.016365999
0.0057000001 -0.01170395 0.0163879
0.0055499999 -0.01170395 0.016439
0.0054000001 -0.01170395 0.016468201
0.0052499999 -0.01170395 0.0164463
0.0051000002 -0.01170395 0.0163879
0.00495 -0.01170395 0.016373301
0.0048000002 -0.01170395 0.016380601
0.00465 -0.01170395 0.016373301
0.0044999998 -0.01170395 0.0164025
0.0043500001 -0.01170395 0.016409799
0.0041999999 -0.01170395 0.016380601
0.0040500001 -0.01170395 0.0163879
0.0038999999 -0.01170395 0.016409799
0.0037499999 -0.01170395 0.0163879
0.0035999999 -0.01170395 0.016373301
0.00345 -0.01170395 0.0164025
0.0033 -0.01170395 0.0163952
0.00315 -0.01170395 0.0163879
0.003 -0.01170395 0.016409799
0.00285 -0.01170395 0.016417099
0.0027000001 -0.01170395 0.0164536
0.0025500001 -0.01170395 0.0164317
0.0024000001 -0.01170395 0.016417099
0.0022499999 -0.01170395 0.016380601
0.0020999999 -0.01170395 0.016365999
0.0019499999 -0.01170395 0.016424401
0.0018 -0.01170395 0.0163587
0.00165 -0.01170395 0.016417099
0.0015 -0.01170395 0.016424401
0.00135 -0.01170395 0.016424401
0.0012000001 -0.01170395 0.016475501
0.00105 -0.01170395 0.016504699
0.00089999998 -0.01170395 0.0164828
0.00075000001 -0.01170395 0.016475501
0.00060000003 -0.01170395 0.016424401
0.00044999999 -0.01170395 0.016460899
0.00030000001 -0.01170395 0.016424401
0.00015000001 -0.01170395 0.016409799
-0 -0.01170395 0.016417099
-0.00015000001 -0.01170395 0.0163952
-0.00030000001 -0.01170395 0.0163952
-0.00044999999 -0.01170395 0.0164317
-0.00060000003 -0.01170395 0.016417099
-0.00075000001 -0.01170395 0.016380601
-0.00089999998 -0.01170395 0.0163952
-0.00105 -0.01170395 0.0164025
-0.0012000001 -0.01170395 0.0164317
-0.00135 -0.01170395 0.016468201
-0.0015 -0.01170395 0.016409799
-0.00165 -0.01170395 0.0164317
-0.0018 -0.01170395 0.0164025
-0.0019499999 -0.01170395 0.0163879
-0.0020999999 -0.01170395 0.016424401
-0.0022499999 -0.01170395 0.016460899
-0.0024000001 -0.01170395 0.0164901
-0.0025500001 -0.01170395 0.0164901
-0.0027000001 -0.01170395 0.016460899
-0.00285 -0.01170395 0.016439
-0.003 -0.01170395 0.0164025
-0.00315 -0.01170395 0.016460899
-0.0033 -0.01170395 0.0164901
-0.00345 -0.01170395 0.0164536
-0.0035999999 -0.01170395 0.0164463
-0.0037499999 -0.01170395 0.0164974
-0.0038999999 -0.01170395 0.016511999
-0.0040500001 -0.01170395 0.016511999
-0.0041999999 -0.01170395 0.016519301
-0.0043500001 -0.01170395 0.016519301
-0.0044999998 -0.01170395 0.016504699
-0.00465 -0.01170395 0.016511999
-0.0048000002 -0.01170395 0.016475501
-0.00495 -0.01170395 0.0165412
-0.0051000002 -0.01170395 0.016511999
-0.0052499999 -0.01170395 0.016519301
-0.0054000001 -0.01170395 0.0165266
-0.0055499999 -0.01170395 0.0165266
-0.0057000001 -0.01170395 0.016519301
-0.0058499998 -0.01170395 0.0165412
-0.0060000001 -0.01170395 0.016548499
-0.0061499998 -0.01170395 0.0165412
-0.0063 -0.01170395 0.016555799
-0.0064500002 -0.01170395 0.016563101
-0.0066 -0.01170395 0.016548499
-0.0067500002 -0.01170395 0.016548499
-0.0068999999 -0.01170395 0.0165339
-0.0070500001 -0.01170395 0.0165266
-0.0071999999 -0.01170395 0.016563101
-0.0073500001 -0.01170395 0.0165704
-0.0074999998 -0.01170395 0.0166288
-0.00765 -0.01170395 0.0166361
-0.0077999998 -0.01170395 0.0166288
-0.0079500005 -0.01170395 0.016563101
-0.0081000002 -0.01170395 0.016606901
-0.00825 -0.01170395 0.016614201
-0.0083999997 -0.01170395 0.0166215
-0.0085500004 -0.01170395 0.016643399
-0.0087000001 -0.01170395 0.0166288
-0.0088499999 -0.01170395 0.016658001
-0.0089999996 -0.01170395 0.0166361
-0.0091500003 -0.01170395 0.016658001
-0.0093 -0.01170395 0.016643399
-0.0094499998 -0.01170395 0.016599599
-0.0096000005 -0.01170395 0.016599599
-0.0097500002 -0.01170395 0.016643399
-0.0098999999 -0.01170395 0.0166653
-0.01005 -0.01170395 0.0166653
-0.0102 -0.01170395 0.0166653
-0.01035 -0.01170395 0.0166726
-0.0105 -0.01170395 0.0166799
-0.01065 -0.01170395 0.016701801
-0.0108 -0.01170395 0.016687199
-0.01095 -0.01170395 0.0166799
-0.0111 -0.01170395 0.0166726
-0.01125 -0.01170395 0.016687199
-0.0114 -0.01170395 0.016752901
-0.01155 -0.01170395 0.0167091
-0.0117 -0.01170395 0.016701801
-0.01185 -0.01170395 0.016752901
-0.012 -0.01170395 0.016738299
-0.01215 -0.01170395 0.016731
-0.0123 -0.01170395 0.016738299
-0.01245 -0.01170395 0.016738299
-0.0126 -0.01170395 0.0167164
-0.01275 -0.01170395 0.0167091
-0.0129 -0.01170395 0.016738299
-0.01305 -0.01170395 0.0167602
-0.0132 -0.01170395 0.0167748
-0.01335 -0.01170395 0.0167602
-0.0135 -0.01170395 0.0167602
-0.01365 -0.01170395 0.016796701
-0.0138 -0.01170395 0.016738299
-0.01395 -0.01170395 0.0167675
-0.0141 -0.01170395 0.0167748
-0.01425 -0.01170395 0.0167675
-0.0144 -0.01170395 0.016796701
-0.01455 -0.01170395 0.0168186
-0.0147 -0.01170395 0.016840501
-0.01485 -0.01170395 0.016876999
-0.015 -0.01170395 0.0168113
-0.01515 -0.01170395 0.0167675
-0.0153 -0.01170395 0.0167748
-0.01545 -0.01170395 0.016825899
-0.0156 -0.01170395 0.016833199
-0.01575 -0.01170395 0.016928099
-0.015900001 -0.01170395 0.016884301
-0.01605 -0.01170395 0.0168624
-0.0162 -0.01170395 0.0168624
-0.016349999 -0.01170395 0.016825899
-0.0165 -0.01170395 0.016796701
-0.016650001 -0.01170395 0.0168478
-0.016799999 -0.01170395 0.016884301
-0.01695 -0.01170395 0.016876999
-0.017100001 -0.01170395 0.016840501
-0.01725 -0.01170395 0.016884301
-0.0174 -0.01170395 0.016884301
-0.017550001 -0.01170395 0.0168989
-0.0177 -0.01170395 0.016920799
-0.01785 -0.01170395 0.016928099
-0.017999999 -0.01170395 0.016920799
-0.01815 -0.01170395 0.0169062
-0.018300001 -0.01170395 0.016920799
-0.018449999 -0.01170395 0.0169427
-0.0186 -0.01170395 0.0169573
-0.018750001 -0.01170395 0.016971899
-0.0189 -0.01170395 0.0169427
-0.01905 -0.01170395 0.0170011
-0.019200001 -0.01170395 0.0169938
-0.01935 -0.01170395 0.017023001
-0.0195 -0.01170395 0.0169573
-0.019649999 -0.01170395 0.016920799
-0.0198 -0.01170395 0.016928099
-0.019950001 -0.01170395 0.0169573
-0.020099999 -0.01170395 0.016964599
-0.02025 -0.01170395 0.016971899
-0.020400001 -0.01170395 0.0170084
-0.02055 -0.01170395 0.017023001
-0.0207 -0.01170395 0.017023001
-0.020850001 -0.01170395 0.0170522
-0.021 -0.01170395 0.017015699
-0.02115 -0.01170395 0.017074101
-0.021299999 -0.01170395 0.0171252
-0.02145 -0.01170395 0.017030301
-0.021600001 -0.01170395 0.017030301
-0.021749999 -0.01170395 0.0169865
-0.0219 -0.01170395 0.017059499
-0.022050001 -0.01170395 0.0170887
-0.0222 -0.01170395 0.0170887
-0.02235 -0.01170395 0.017059499
-0.022500001 -0.01170395 0.017015699
-0.02265 -0.01170395 0.0170449
-0.0228 -0.01170395 0.017066799
-0.022949999 -0.01170395 0.0170084
-0.0231 -0.01170395 0.017110599
-0.023250001 -0.01170395 0.0170887
-0.023399999 -0.01170395 0.0171471
-0.02355 -0.01170395 0.0171471
-0.023700001 -0.01170395 0.017198199
-0.02385 -0.01170395 0.0171471
-0.024 -0.01170395 0.017117901
-0.024150001 -0.01170395 0.0171398
-0.0243 -0.01170395 0.0171325
-0.02445 -0.01170395 0.017110599
-0.024599999 -0.01170395 0.0171398
-0.02475 -0.01170395 0.017198199
-0.024900001 -0.01170395 0.0171909
-0.025049999 -0.01170395 0.017096
-0.0252 -0.01170395 0.0171836
-0.025350001 -0.01170395 0.017249299
-0.0255 -0.01170395 0.0172639
-0.02565 -0.01170395 0.0172347
-0.025800001 -0.01170395 0.0172274
-0.02595 -0.01170395 0.017205499
-0.0261 -0.01170395 0.0171836
-0.026249999 -0.01170395 0.0171763
-0.0264 -0.01170395 0.0171763
-0.026550001 -0.01170395 0.017169001
-0.026699999 -0.01170395 0.017198199
-0.02685 -0.01170395 0.0172785
-0.027000001 -0.01170395 0.0172712
-0.02715 -0.01170395 0.0173296
-0.0273 -0.01170395 0.0173588
-0.027450001 -0.01170395 0.017344199
-0.0276 -0.01170395 0.0173734
-0.02775 -0.01170395 0.0173807
-0.027899999 -0.01170395 0.0173588
-0.02805 -0.01170395 0.0173223
-0.028200001 -0.01170395 0.017336899
-0.028349999 -0.01170395 0.0173661
-0.0285 -0.01170395 0.017351501
-0.028650001 -0.01170395 0.017344199
-0.0288 -0.01170395 0.0173734
-0.02895 -0.01170395 0.0174026
-0.029100001 -0.01170395 0.0174026
-0.02925 -0.01170395 0.017387999
-0.0294 -0.01170395 0.017439101
-0.029549999 -0.01170395 0.0174245
-0.0297 -0.01170395 0.0174026
-0.029850001 -0.01170395 0.0174099
-0.029999999 -0.01170395 0.0174537
-0.03015 -0.01170395 0.0174683
-0.030300001 -0.01170395 0.017461
-0.030449999 -0.01170395 0.017446401
-0.0306 -0.01170395 0.0174172
-0.030750001 -0.01170395 0.017431799
-0.0309 -0.01170395 0.0174537
-0.03105 -0.01170395 0.017446401
-0.031199999 -0.01170395 0.0175048
-0.031350002 -0.01170395 0.017490201
-0.031500001 -0.01170395 0.0175121
-0.031649999 -0.01170395 0.0175194
-0.031800002 -0.01170395 0.017534001
-0.031950001 -0.01170395 0.017541301
-0.032099999 -0.01170395 0.0175121
-0.032249998 -0.01170395 0.017482899
-0.032400001 -0.01170395 0.017490201
-0.03255 -0.01170395 0.0175048
-0.032699998 -0.01170395 0.0174975
-0.032850001 -0.01170395 0.017541301
-0.033 -0.01170395 0.017577801
-0.033149999 -0.01170395 0.0175559
-0.033300001 -0.01170395 0.0175997
-0.03345 -0.01170395 0.017585101
-0.033599999 -0.01170395 0.017534001
-0.033750001 -0.01170395 0.017614299
-0.0339 -0.01170395 0.0176362
-0.034049999 -0.01170395 0.0176581
-0.034200002 -0.01170395 0.017665399
-0.03435 -0.01170395 0.017621599
-0.034499999 -0.01170395 0.0175997
-0.034650002 -0.01170395 0.017628901
-0.0348 -0.01170395 0.0176581
-0.034949999 -0.01170395 0.017665399
-0.035100002 -0.01170395 0.0176435
-0.035250001 -0.01170395 0.0176581
-0.035399999 -0.01170395 0.0176873
-0.035549998 -0.01170395 0.0176873
-0.035700001 -0.01170395 0.017665399
-0.03585 -0.01170395 0.0176435
-0.035999998 -0.01170395 0.0176362
-0.036150001 -0.01170395 0.017716501
-0.0363 -0.01170395 0.0176946
-0.036449999 -0.01170395 0.0176873
-0.036600001 -0.01170395 0.017709199
-0.03675 -0.01170395 0.0177749
-0.036899999 -0.01170395 0.017811401
-0.037050001 -0.01170395 0.017811401
-0.0372 -0.01170395 0.0177968
-0.037349999 -0.01170395 0.0177749
-0.037500001 -0.01170395 0.0177457
-0.03765 -0.01170395 0.0177822
-0.037799999 -0.01170395 0.017847899
-0.037950002 -0.01170395 0.017847899
-0.0381 -0.01170395 0.017847899
-0.038249999 -0.01170395 0.0178771
-0.038400002 -0.01170395 0.0178844
-0.038550001 -0.01170395 0.0178698
-0.038699999 -0.01170395 0.0178406
-0.038849998 -0.01170395 0.0178771
-0.039000001 -0.01170395 0.017906301
-0.03915 -0.01170395 0.017898999
-0.039299998 -0.01170395 0.0179136
-0.039450001 -0.01170395 0.017942799
-0.0396 -0.01170395 0.017972
-0.039749999 -0.01170395 0.017957401
-0.039900001 -0.01170395 0.0179282
-0.04005 -0.01170395 0.0179136
-0.040199999 -0.01170395 0.017986599
-0.040350001 -0.01170395 0.018001201
-0.0405 -0.01170395 0.018001201
-0.040649999 -0.01170395 0.0179282
-0.040800001 -0.01170395 0.017950101
-0.04095 -0.01170395 0.0179793
-0.041099999 -0.01170395 0.018001201
-0.041250002 -0.01170395 0.018037699
-0.0414 -0.01170395 0.018045001
-0.041549999 -0.01170395 0.018030399
-0.041700002 -0.01170395 0.0180523
-0.041850001 -0.01170395 0.0180669
-0.041999999 -0.01170395 0.018001201
-0.042149998 -0.01170395 0.0180158
-0.042300001 -0.01170395 0.018088801
-0.04245 -0.01170395 0.0180596
-0.042599998 -0.01170395 0.0181034
-0.042750001 -0.01170395 0.0181472
-0.0429 -0.01170395 0.0181545
-0.043049999 -0.01170395 0.018139901
-0.043200001 -0.01170395 0.0181034
-0.04335 -0.01170395 0.018088801
-0.043499999 -0.01170395 0.018125299
-0.043650001 -0.01170395 0.0181618
-0.0438 -0.01170395 0.018191
-0.043949999 -0.01170395 0.0181983
-0.044100001 -0.01170395 0.0182567
-0.04425 -0.01170395 0.0182056
-0.044399999 -0.01170395 0.0181983
-0.044550002 -0.01170395 0.0182129
-0.0447 -0.01170395 0.018220199
-0.044849999 -0.01170395 0.0182421
-0.045000002 -0.01170395 0.0182494
-0.045150001 -0.01170395 0.0182567
-0.045299999 -0.01170395 0.018263999
-0.045449998 -0.01170395 0.0183005
-0.045600001 -0.01170395 0.018307799
-0.04575 -0.01170395 0.0182859
-0.045899998 -0.01170395 0.0183005
-0.046050001 -0.01170395 0.018315099
-0.0462 -0.01170395 0.0183005
-0.046349999 -0.01170395 0.018322401
-0.046500001 -0.01170395 0.0182932
-0.04665 -0.01170395 0.0183516
-0.046799999 -0.01170395 0.018366201
-0.046950001 -0.01170395 0.018409999
-0.0471 -0.01170395 0.018417301
-0.047249999 -0.01170395 0.0184246
-0.047400001 -0.01170395 0.0184246
-0.04755 -0.01170395 0.0184246
-0.047699999 -0.01170395 0.018483
-0.047850002 -0.01170395 0.0184684
-0.048 -0.01170395 0.0184246
-0.048149999 -0.01170395 0.0184392
-0.048300002 -0.01170395 0.0184684
-0.048450001 -0.01170395 0.018512201
-0.048599999 -0.01170395 0.018512201
-0.048749998 -0.01170395 0.018541399
-0.048900001 -0.01170395 0.018556001
-0.04905 -0.01170395 0.018541399
-0.049199998 -0.01170395 0.018541399
-0.049350001 -0.01170395 0.0185195
-0.0495 -0.01170395 0.018512201
-0.049649999 -0.01170395 0.0185633
-0.049800001 -0.01170395 0.0185341
-0.04995 -0.01170395 0.0185779
-0.050099999 -0.01170395 0.018636299
-0.050250001 -0.01170395 0.018629
-0.0504 -0.01170395 0.0186071
-0.050549999 -0.01170395 0.0186144
-0.050700001 -0.01170395 0.018643601
-0.05085 -0.01170395 0.0186144
-0.050999999 -0.01170395 0.018599801
-0.051150002 -0.01170395 0.018694701
-0.0513 -0.01170395 0.018687399
-0.051449999 -0.01170395 0.018723899
-0.051600002 -0.01170395 0.018738501
-0.051750001 -0.01170395 0.018694701
-0.051899999 -0.01170395 0.018723899
-0.052049998 -0.01170395 0.018687399
-0.052200001 -0.01170395 0.0186655
-0.05235 -0.01170395 0.0187093
-0.052499998 -0.01170395 0.0187677
-0.052650001 -0.01170395 0.018782301
-0.0528 -0.01170395 0.018774999
-0.052949999 -0.01170395 0.0187969
-0.053100001 -0.01170395 0.018818799
-0.05325 -0.01170395 0.018848
-0.053399999 -0.01170395 0.0188845
-0.053550001 -0.01170395 0.0188626
-0.0537 -0.01170395 0.0188626
-0.053849999 -0.01170395 0.0188845
-0.054000001 -0.01170395 0.0188042
-0.05415 -0.01170395 0.0188553
-0.054299999 -0.01170395 0.018848
-0.054450002 -0.01170395 0.018913699
-0.0546 -0.01170395 0.0189356
-0.054749999 -0.01170395 0.0188991
-0.054900002 -0.01170395 0.0188845
-0.055050001 -0.01170395 0.0188991
-0.055199999 -0.01170395 0.018921001
-0.055349998 -0.01170395 0.0189502
-0.055500001 -0.01170395 0.018972101
-0.05565 -0.01170395 0.019008599
-0.055799998 -0.01170395 0.019052399
-0.055950001 -0.01170395 0.019052399
-0.0561 -0.01170395 0.019103499
-0.056249999 -0.01170395 0.0190816
-0.056400001 -0.01170395 0.019059701
-0.05655 -0.01170395 0.019096199
-0.056699999 -0.01170395 0.019096199
-0.056850001 -0.01170395 0.0190889
-0.057 -0.01170395 0.0190816
-0.057149999 -0.01170395 0.019161901
-0.057300001 -0.01170395 0.0191181
-0.05745 -0.01170395 0.019103499
-0.057599999 -0.01170395 0.019147299
-0.057750002 -0.01170395 0.019154601
-0.0579 -0.01170395 0.01914
-0.058049999 -0.01170395 0.01914
-0.058200002 -0.01170395 0.0191327
-0.058350001 -0.01170395 0.0191254
-0.058499999 -0.01170395 0.0191838
-0.058649998 -0.01170395 0.0192641
-0.058800001 -0.01170395 0.019329799
-0.05895 -0.01170395 -inf
-0.059099998 -0.01170395 -inf
-0.059250001 -0.01170395 -inf
-0.0594 -0.01170395 -inf
-0.059549998 -0.01170395 -inf
-0.059700001 -0.01170395 -inf
-0.05985 -0.01170395 -inf
-0.059999999 -0.01170395 -inf
-0.060150001 -0.01170395 -inf
-0.0603 -0.01170395 -inf
-0.060449999 -0.01170395 -inf
-0.060600001 -0.01170395 -inf
-0.06075 -0.01170395 -inf
-0.060899999 -0.01170395 -inf
0.060899999 -0.010767609 -inf
0.06075 -0.010767609 -inf
0.060600001 -0.010767609 -inf
0.060449999 -0.010767609 -inf
0.0603 -0.010767609 -inf
0.060150001 -0.010767609 -inf
0.059999999 -0.010767609 -inf
0.05985 -0.010767609 -inf
0.059700001 -0.010767609 -inf
0.059549998 -0.010767609 -inf
0.0594 -0.010767609 0.018833401
0.059250001 -0.010767609 0.018723899
0.059099998 -0.010767609 0.018680099
0.05895 -0.010767609 0.018680099
0.058800001 -0.010767609 0.018629
0.058649998 -0.010767609 0.0186144
0.058499999 -0.010767609 0.0185341
0.058350001 -0.010767609 0.0185706
0.058200002 -0.010767609 0.018548699
0.058049999 -0.010767609 0.018548699
0.0579 -0.010767609 0.018585199
0.057750002 -0.010767609 0.018548699
0.057599999 -0.010767609 0.0185268
0.05745 -0.010767609 0.0185341
0.057300001 -0.010767609 0.0185341
0.057149999 -0.010767609 0.0185195
0.057 -0.010767609 0.0184903
0.056850001 -0.010767609 0.018461101
0.056699999 -0.010767609 0.018483
0.05655 -0.010767609 0.018483
0.056400001 -0.010767609 0.018446499
0.056249999 -0.010767609 0.018373501
0.0561 -0.010767609 0.018337
0.055950001 -0.010767609 0.0183808
0.055799998 -0.010767609 0.0183808
0.05565 -0.010767609 0.018373501
0.055500001 -0.010767609 0.0183297
0.055349998 -0.010767609 0.018337
0.055199999 -0.010767609 0.0183443
0.055050001 -0.010767609 0.018322401
0.054900002 -0.010767609 0.018307799
0.054749999 -0.010767609 0.0182859
0.0546 -0.010767609 0.0182421
0.054450002 -0.010767609 0.018234801
0.054299999 -0.010767609 0.018234801
0.05415 -0.010767609 0.0181983
0.054000001 -0.010767609 0.0182129
0.053849999 -0.010767609 0.018191
0.0537 -0.010767609 0.018169099
0.053550001 -0.010767609 0.0182056
0.053399999 -0.010767609 0.018139901
0.05325 -0.010767609 0.0181107
0.053100001 -0.010767609 0.018132599
0.052949999 -0.010767609 0.018139901
0.0528 -0.010767609 0.0181472
0.052650001 -0.010767609 0.018088801
0.052499998 -0.010767609 0.0180596
0.05235 -0.010767609 0.0180596
0.052200001 -0.010767609 0.0180231
0.052049998 -0.010767609 0.018001201
0.051899999 -0.010767609 0.0180085
0.051750001 -0.010767609 0.0179793
0.051600002 -0.010767609 0.017957401
0.051449999 -0.010767609 0.017942799
0.0513 -0.010767609 0.017950101
0.051150002 -0.010767609 0.0179136
0.050999999 -0.010767609 0.017906301
0.05085 -0.010767609 0.017950101
0.050700001 -0.010767609 0.017898999
0.050549999 -0.010767609 0.0178698
0.0504 -0.010767609 0.0178698
0.050250001 -0.010767609 0.0179209
0.050099999 -0.010767609 0.0179282
0.04995 -0.010767609 0.0178698
0.049800001 -0.010767609 0.017855201
0.049649999 -0.010767609 0.017847899
0.0495 -0.010767609 0.0178333
0.049350001 -0.010767609 0.017826
0.049199998 -0.010767609 0.017804099
0.04905 -0.010767609 0.0177968
0.048900001 -0.010767609 0.0178333
0.048749998 -0.010767609 0.0177968
0.048599999 -0.010767609 0.0177749
0.048450001 -0.010767609 0.017760299
0.048300002 -0.010767609 0.0177457
0.048149999 -0.010767609 0.0177749
0.048 -0.010767609 0.0176581
0.047850002 -0.010767609 0.0175997
0.047699999 -0.010767609 0.0176508
0.04755 -0.010767609 0.017628901
0.047400001 -0.010767609 0.017628901
0.047249999 -0.010767609 0.0176508
0.0471 -0.010767609 0.017672701
0.046950001 -0.010767609 0.017680001
0.046799999 -0.010767609 0.0176581
0.04665 -0.010767609 0.017614299
0.046500001 -0.010767609 0.0175997
0.046349999 -0.010767609 0.0176362
0.0462 -0.010767609 0.017628901
0.046050001 -0.010767609 0.017577801
0.045899998 -0.010767609 0.017541301
0.04575 -0.010767609 0.017541301
0.045600001 -0.010767609 0.0175559
0.045449998 -0.010767609 0.0175486
0.045299999 -0.010767609 0.0174975
0.045150001 -0.010767609 0.017475599
0.045000002 -0.010767609 0.0175048
0.044849999 -0.010767609 0.017526699
0.0447 -0.010767609 0.017534001
0.044550002 -0.010767609 0.017534001
0.044399999 -0.010767609 0.0175121
0.04425 -0.010767609 0.0174683
0.044100001 -0.010767609 0.0174537
0.043949999 -0.010767609 0.017475599
0.0438 -0.010767609 0.0174537
0.043650001 -0.010767609 0.017446401
0.043499999 -0.010767609 0.017439101
0.04335 -0.010767609 0.017431799
0.043200001 -0.010767609 0.017439101
0.043049999 -0.010767609 0.0174245
0.0429 -0.010767609 0.017446401
0.042750001 -0.010767609 0.017395301
0.042599998 -0.010767609 0.0173661
0.04245 -0.010767609 0.0173588
0.042300001 -0.010767609 0.0173588
0.042149998 -0.010767609 0.017387999
0.041999999 -0.010767609 0.017387999
0.041850001 -0.010767609 0.0173661
0.041700002 -0.010767609 0.017336899
0.041549999 -0.010767609 0.0173223
0.0414 -0.010767609 0.0173296
0.041250002 -0.010767609 0.0172712
0.041099999 -0.010767609 0.017315
0.04095 -0.010767609 0.0172785
0.040800001 -0.010767609 0.017300401
0.040649999 -0.010767609 0.0172347
0.0405 -0.010767609 0.0172347
0.040350001 -0.010767609 0.0172201
0.040199999 -0.010767609 0.017161701
0.04005 -0.010767609 0.017198199
0.039900001 -0.010767609 0.0172274
0.039749999 -0.010767609 0.017198199
0.0396 -0.010767609 0.017154399
0.039450001 -0.010767609 0.0171252
0.039299998 -0.010767609 0.017103299
0.03915 -0.010767609 0.017096
0.039000001 -0.010767609 0.0171252
0.038849998 -0.010767609 0.0171252
0.038699999 -0.010767609 0.017161701
0.038550001 -0.010767609 0.017074101
0.038400002 -0.010767609 0.017103299
0.038249999 -0.010767609 0.017066799
0.0381 -0.010767609 0.017059499
0.037950002 -0.010767609 0.0170449
0.037799999 -0.010767609 0.017015699
0.03765 -0.010767609 0.017023001
0.037500001 -0.010767609 0.017059499
0.037349999 -0.010767609 0.017066799
0.0372 -0.010767609 0.017023001
0.037050001 -0.010767609 0.0169938
0.036899999 -0.010767609 0.0169938
0.03675 -0.010767609 0.0170011
0.036600001 -0.010767609 0.016979201
0.036449999 -0.010767609 0.0169573
0.0363 -0.010767609 0.0170011
0.036150001 -0.010767609 0.016935401
0.035999998 -0.010767609 0.0169427
0.03585 -0.010767609 0.016891601
0.035700001 -0.010767609 0.016935401
0.035549998 -0.010767609 0.01695
0.035399999 -0.010767609 0.0169427
0.035250001 -0.010767609 0.016928099
0.035100002 -0.010767609 0.0169062
0.034949999 -0.010767609 0.016920799
0.0348 -0.010767609 0.0169427
0.034650002 -0.010767609 0.0168989
0.034499999 -0.010767609 0.0169135
0.03435 -0.010767609 0.0168989
0.034200002 -0.010767609 0.016935401
0.034049999 -0.010767609 0.016876999
0.0339 -0.010767609 0.016935401
0.033750001 -0.010767609 0.016935401
0.033599999 -0.010767609 0.016884301
0.03345 -0.010767609 0.0168551
0.033300001 -0.010767609 0.0168478
0.033149999 -0.010767609 0.0168113
0.033 -0.010767609 0.016833199
0.032850001 -0.010767609 0.0168624
0.032699998 -0.010767609 0.016833199
0.03255 -0.010767609 0.0168113
0.032400001 -0.010767609 0.016825899
0.032249998 -0.010767609 0.016804
0.032099999 -0.010767609 0.016782099
0.031950001 -0.010767609 0.0168186
0.031800002 -0.010767609 0.016752901
0.031649999 -0.010767609 0.016745601
0.031500001 -0.010767609 0.016796701
0.031350002 -0.010767609 0.016804
0.031199999 -0.010767609 0.016731
0.03105 -0.010767609 0.016738299
0.0309 -0.010767609 0.016731
0.030750001 -0.010767609 0.0167164
0.0306 -0.010767609 0.0167091
0.030449999 -0.010767609 0.016687199
0.030300001 -0.010767609 0.0167164
0.03015 -0.010767609 0.016731
0.029999999 -0.010767609 0.016694499
0.029850001 -0.010767609 0.016738299
0.0297 -0.010767609 0.0167237
0.029549999 -0.010767609 0.016701801
0.0294 -0.010767609 0.016687199
0.02925 -0.010767609 0.016658001
0.029100001 -0.010767609 0.016658001
0.02895 -0.010767609 0.0166288
0.0288 -0.010767609 0.016643399
0.028650001 -0.010767609 0.0166653
0.0285 -0.010767609 0.0166653
0.028349999 -0.010767609 0.0166653
0.028200001 -0.010767609 0.016658001
0.02805 -0.010767609 0.0166215
0.027899999 -0.010767609 0.016585
0.02775 -0.010767609 0.0166361
0.0276 -0.010767609 0.016599599
0.027450001 -0.010767609 0.0166215
0.0273 -0.010767609 0.0166653
0.02715 -0.010767609 0.016658001
0.027000001 -0.010767609 0.016658001
0.02685 -0.010767609 0.0166653
0.026699999 -0.010767609 0.016650699
0.026550001 -0.010767609 0.016599599
0.0264 -0.010767609 0.016585
0.026249999 -0.010767609 0.016643399
0.0261 -0.010767609 0.0166361
0.02595 -0.010767609 0.0166215
0.025800001 -0.010767609 0.0166215
0.02565 -0.010767609 0.0166361
0.0255 -0.010767609 0.0166215
0.025350001 -0.010767609 0.016599599
0.0252 -0.010767609 0.016599599
0.025049999 -0.010767609 0.016555799
0.024900001 -0.010767609 0.0165412
0.02475 -0.010767609 0.016563101
0.024599999 -0.010767609 0.0165777
0.02445 -0.010767609 0.0165923
0.0243 -0.010767609 0.016548499
0.024150001 -0.010767609 0.0165266
0.024 -0.010767609 0.0165704
0.02385 -0.010767609 0.0165704
0.023700001 -0.010767609 0.016519301
0.02355 -0.010767609 0.016511999
0.023399999 -0.010767609 0.0165266
0.023250001 -0.010767609 0.0165339
0.0231 -0.010767609 0.016563101
0.022949999 -0.010767609 0.016563101
0.0228 -0.010767609 0.0165266
0.02265 -0.010767609 0.016511999
0.022500001 -0.010767609 0.016548499
0.02235 -0.010767609 0.0165339
0.0222 -0.010767609 0.0164974
0.022050001 -0.010767609 0.016504699
0.0219 -0.010767609 0.016504699
0.021749999 -0.010767609 0.0164828
0.021600001 -0.010767609 0.0165266
0.02145 -0.010767609 0.016511999
0.021299999 -0.010767609 0.0165266
0.02115 -0.010767609 0.0165339
0.021 -0.010767609 0.016511999
0.020850001 -0.010767609 0.016519301
0.0207 -0.010767609 0.016504699
0.02055 -0.010767609 0.016460899
0.020400001 -0.010767609 0.0164974
0.02025 -0.010767609 0.0164974
0.020099999 -0.010767609 0.016519301
0.019950001 -0.010767609 0.0164463
0.0198 -0.010767609 0.016504699
0.019649999 -0.010767609 0.016511999
0.0195 -0.010767609 0.0164901
0.01935 -0.010767609 0.016468201
0.019200001 -0.010767609 0.0164828
0.01905 -0.010767609 0.016475501
0.0189 -0.010767609 0.016460899
0.018750001 -0.010767609 0.0164974
0.0186 -0.010767609 0.0165339
0.018449999 -0.010767609 0.016504699
0.018300001 -0.010767609 0.016424401
0.01815 -0.010767609 0.0164317
0.017999999 -0.010767609 0.0164317
0.01785 -0.010767609 0.016336801
0.0177 -0.010767609 0.0163879
0.017550001 -0.010767609 0.016417099
0.0174 -0.010767609 0.0164536
0.01725 -0.010767609 0.016439
0.017100001 -0.010767609 0.0164317
0.01695 -0.010767609 0.0164025
0.016799999 -0.010767609 0.016417099
0.016650001 -0.010767609 0.0164463
0.0165 -0.010767609 0.0164317
0.016349999 -0.010767609 0.016460899
0.0162 -0.010767609 0.016460899
0.01605 -0.010767609 0.016439
0.015900001 -0.010767609 0.0164317
0.01575 -0.010767609 0.0164317
0.0156 -0.010767609 0.016380601
0.01545 -0.010767609 0.016373301
0.0153 -0.010767609 0.0164025
0.01515 -0.010767609 0.0163879
0.015 -0.010767609 0.016417099
0.01485 -0.010767609 0.016424401
0.0147 -0.010767609 0.0164025
0.01455 -0.010767609 0.016409799
0.0144 -0.010767609 0.0164317
0.01425 -0.010767609 0.0164828
0.0141 -0.010767609 0.016475501
0.01395 -0.010767609 0.016460899
0.0138 -0.010767609 0.0164317
0.01365 -0.010767609 0.0163514
0.0135 -0.010767609 0.0164025
0.01335 -0.010767609 0.016439
0.0132 -0.010767609 0.016424401
0.01305 -0.010767609 0.0164025
0.0129 -0.010767609 0.0163879
0.01275 -0.010767609 0.0164317
0.0126 -0.010767609 0.0164463
0.01245 -0.010767609 0.016417099
0.0123 -0.010767609 0.0163952
0.01215 -0.010767609 0.0163879
0.012 -0.010767609 0.0163879
0.01185 -0.010767609 0.016365999
0.0117 -0.010767609 0.0163952
0.01155 -0.010767609 0.016380601
0.0114 -0.010767609 0.0163879
0.01125 -0.010767609 0.0163952
0.0111 -0.010767609 0.016417099
0.01095 -0.010767609 0.0164536
0.0108 -0.010767609 0.016439
0.01065 -0.010767609 0.0164025
0.0105 -0.010767609 0.016409799
0.01035 -0.010767609 0.0163952
0.0102 -0.010767609 0.016439
0.01005 -0.010767609 0.016424401
0.0098999999 -0.010767609 0.016417099
0.0097500002 -0.010767609 0.0163952
0.0096000005 -0.010767609 0.0163952
0.0094499998 -0.010767609 0.016409799
0.0093 -0.010767609 0.016424401
0.0091500003 -0.010767609 0.016424401
0.0089999996 -0.010767609 0.016409799
0.0088499999 -0.010767609 0.016380601
0.0087000001 -0.010767609 0.0163587
0.0085500004 -0.010767609 0.0163879
0.0083999997 -0.010767609 0.0163879
0.00825 -0.010767609 0.016373301
0.0081000002 -0.010767609 0.016417099
0.0079500005 -0.010767609 0.0164536
0.0077999998 -0.010767609 0.016417099
0.00765 -0.010767609 0.016424401
0.0074999998 -0.010767609 0.0163879
0.0073500001 -0.010767609 0.016409799
0.0071999999 -0.010767609 0.016439
0.0070500001 -0.010767609 0.016417099
0.0068999999 -0.010767609 0.0163952
0.0067500002 -0.010767609 0.016439
0.0066 -0.010767609 0.016475501
0.0064500002 -0.010767609 0.0164901
0.0063 -0.010767609 0.0164536
0.0061499998 -0.010767609 0.016468201
0.0060000001 -0.010767609 0.0164025
0.0058499998 -0.010767609 0.0164463
0.0057000001 -0.010767609 0.016424401
0.0055499999 -0.010767609 0.0164536
0.0054000001 -0.010767609 0.016424401
0.0052499999 -0.010767609 0.016417099
0.0051000002 -0.010767609 0.0164317
0.00495 -0.010767609 0.016409799
0.0048000002 -0.010767609 0.016409799
0.00465 -0.010767609 0.0164463
0.0044999998 -0.010767609 0.016460899
0.0043500001 -0.010767609 0.016439
0.0041999999 -0.010767609 0.0164828
0.0040500001 -0.010767609 0.0163952
0.0038999999 -0.010767609 0.016373301
0.0037499999 -0.010767609 0.016373301
0.0035999999 -0.010767609 0.0163879
0.00345 -0.010767609 0.016380601
0.0033 -0.010767609 0.0163514
0.00315 -0.010767609 0.0163587
0.003 -0.010767609 0.0163879
0.00285 -0.010767609 0.016380601
0.0027000001 -0.010767609 0.016365999
0.0025500001 -0.010767609 0.016409799
0.0024000001 -0.010767609 0.0164974
0.0022499999 -0.010767609 0.016504699
0.0020999999 -0.010767609 0.016417099
0.0019499999 -0.010767609 0.0164463
0.0018 -0.010767609 0.016409799
0.00165 -0.010767609 0.0164536
0.0015 -0.010767609 0.0164828
0.00135 -0.010767609 0.016475501
0.0012000001 -0.010767609 0.0164974
0.00105 -0.010767609 0.016504699
0.00089999998 -0.010767609 0.016460899
0.00075000001 -0.010767609 0.016439
0.00060000003 -0.010767609 0.016460899
0.00044999999 -0.010767609 0.016468201
0.00030000001 -0.010767609 0.016460899
0.00015000001 -0.010767609 0.0164463
-0 -0.010767609 0.0163879
-0.00015000001 -0.010767609 0.0164025
-0.00030000001 -0.010767609 0.016409799
-0.00044999999 -0.010767609 0.016380601
-0.00060000003 -0.010767609 0.0163879
-0.00075000001 -0.010767609 0.016409799
-0.00089999998 -0.010767609 0.0163952
-0.00105 -0.010767609 0.0163514
-0.0012000001 -0.010767609 0.0164536
-0.00135 -0.010767609 0.016468201
-0.0015 -0.010767609 0.016468201
-0.00165 -0.010767609 0.0164901
-0.0018 -0.010767609 0.016417099
-0.0019499999 -0.010767609 0.016439
-0.0020999999 -0.010767609 0.016424401
-0.0022499999 -0.010767609 0.016460899
-0.0024000001 -0.010767609 0.016504699
-0.0025500001 -0.010767609 0.0164828
-0.0027000001 -0.010767609 0.016468201
-0.00285 -0.010767609 0.0164901
-0.003 -0.010767609 0.0164828
-0.00315 -0.010767609 0.0165266
-0.0033 -0.010767609 0.0164828
-0.00345 -0.010767609 0.016548499
-0.0035999999 -0.010767609 0.0164974
-0.0037499999 -0.010767609 0.016519301
-0.0038999999 -0.010767609 0.0165412
-0.0040500001 -0.010767609 0.016555799
-0.0041999999 -0.010767609 0.0165266
-0.0043500001 -0.010767609 0.016511999
-0.0044999998 -0.010767609 0.016548499
-0.00465 -0.010767609 0.0165704
-0.0048000002 -0.010767609 0.0165266
-0.00495 -0.010767609 0.016511999
-0.0051000002 -0.010767609 0.0164974
-0.0052499999 -0.010767609 0.0165412
-0.0054000001 -0.010767609 0.016511999
-0.0055499999 -0.010767609 0.0165339
-0.0057000001 -0.010767609 0.0165923
-0.0058499998 -0.010767609 0.0166288
-0.0060000001 -0.010767609 0.016599599
-0.0061499998 -0.010767609 0.016585
-0.0063 -0.010767609 0.016599599
-0.0064500002 -0.010767609 0.016606901
-0.0066 -0.010767609 0.016614201
-0.0067500002 -0.010767609 0.0166215
-0.0068999999 -0.010767609 0.016585
-0.0070500001 -0.010767609 0.0166361
-0.0071999999 -0.010767609 0.016599599
-0.0073500001 -0.010767609 0.0166215
-0.0074999998 -0.010767609 0.016563101
-0.00765 -0.010767609 0.016606901
-0.0077999998 -0.010767609 0.0166215
-0.0079500005 -0.010767609 0.016650699
-0.0081000002 -0.010767609 0.0166215
-0.00825 -0.010767609 0.016599599
-0.0083999997 -0.010767609 0.0166215
-0.0085500004 -0.010767609 0.016643399
-0.0087000001 -0.010767609 0.0166361
-0.0088499999 -0.010767609 0.0166726
-0.0089999996 -0.010767609 0.016687199
-0.0091500003 -0.010767609 0.0166653
-0.0093 -0.010767609 0.016650699
-0.0094499998 -0.010767609 0.016658001
-0.0096000005 -0.010767609 0.016658001
-0.0097500002 -0.010767609 0.0167091
-0.0098999999 -0.010767609 0.0166653
-0.01005 -0.010767609 0.016687199
-0.0102 -0.010767609 0.016745601
-0.01035 -0.010767609 0.016731
-0.0105 -0.010767609 0.016694499
-0.01065 -0.010767609 0.016694499
-0.0108 -0.010767609 0.016701801
-0.01095 -0.010767609 0.016738299
-0.0111 -0.010767609 0.0167164
-0.01125 -0.010767609 0.016731
-0.0114 -0.010767609 0.016752901
-0.01155 -0.010767609 0.016752901
-0.0117 -0.010767609 0.016752901
-0.01185 -0.010767609 0.0167237
-0.012 -0.010767609 0.0167164
-0.01215 -0.010767609 0.0167602
-0.0123 -0.010767609 0.016789399
-0.01245 -0.010767609 0.0167748
-0.0126 -0.010767609 0.016745601
-0.01275 -0.010767609 0.016752901
-0.0129 -0.010767609 0.016789399
-0.01305 -0.010767609 0.016789399
-0.0132 -0.010767609 0.016796701
-0.01335 -0.010767609 0.0168186
-0.0135 -0.010767609 0.016752901
-0.01365 -0.010767609 0.0168186
-0.0138 -0.010767609 0.016789399
-0.01395 -0.010767609 0.016782099
-0.0141 -0.010767609 0.016833199
-0.01425 -0.010767609 0.0168624
-0.0144 -0.010767609 0.0168624
-0.01455 -0.010767609 0.0168478
-0.0147 -0.010767609 0.0168186
-0.01485 -0.010767609 0.016804
-0.015 -0.010767609 0.016833199
-0.01515 -0.010767609 0.0168624
-0.0153 -0.010767609 0.0168697
-0.01545 -0.010767609 0.016840501
-0.0156 -0.010767609 0.016884301
-0.01575 -0.010767609 0.0168624
-0.015900001 -0.010767609 0.0168551
-0.01605 -0.010767609 0.0168624
-0.0162 -0.010767609 0.0169062
-0.016349999 -0.010767609 0.0169135
-0.0165 -0.010767609 0.016891601
-0.016650001 -0.010767609 0.0168624
-0.016799999 -0.010767609 0.0168478
-0.01695 -0.010767609 0.0169135
-0.017100001 -0.010767609 0.0169062
-0.01725 -0.010767609 0.0169573
-0.0174 -0.010767609 0.0169062
-0.017550001 -0.010767609 0.0169062
-0.0177 -0.010767609 0.0169062
-0.01785 -0.010767609 0.0169135
-0.017999999 -0.010767609 0.016920799
-0.01815 -0.010767609 0.016928099
-0.018300001 -0.010767609 0.01695
-0.018449999 -0.010767609 0.016964599
-0.0186 -0.010767609 0.016971899
-0.018750001 -0.010767609 0.016964599
-0.0189 -0.010767609 0.016920799
-0.01905 -0.010767609 0.0170084
-0.019200001 -0.010767609 0.0170449
-0.01935 -0.010767609 0.0169865
-0.0195 -0.010767609 0.0170522
-0.019649999 -0.010767609 0.0170522
-0.0198 -0.010767609 0.0169865
-0.019950001 -0.010767609 0.016979201
-0.020099999 -0.010767609 0.016971899
-0.02025 -0.010767609 0.0169865
-0.020400001 -0.010767609 0.017015699
-0.02055 -0.010767609 0.0170376
-0.0207 -0.010767609 0.017059499
-0.020850001 -0.010767609 0.0170522
-0.021 -0.010767609 0.017030301
-0.02115 -0.010767609 0.017015699
-0.021299999 -0.010767609 0.017015699
-0.02145 -0.010767609 0.017030301
