# .PCD v0.7 - Point Cloud Data file format
VERSION 0.7
FIELDS x y z
SIZE 4 4 4
TYPE F F F
COUNT 1 1 1
WIDTH 1712
HEIGHT 1
VIEWPOINT 0 0 0 1 0 0 0
POINTS 1712
DATA ascii
-5.79 5.524447 1.94028
-5.8049998 5.524447 1.9468499
-5.8200002 5.524447 1.94393
-5.835 5.524447 1.94831
5.7750001 5.6180811 1.9373599
5.7599998 5.6180811 1.92714
5.7449999 5.6180811 1.92203
5.73 5.6180811 1.92641
5.7149997 5.6180811 1.92422
5.6999998 5.6180811 1.92568
5.6849999 5.6180811 1.92203
5.6700001 5.6180811 1.9198401
5.6550002 5.6180811 1.9169201
5.6400003 5.6180811 1.91619
5.625 5.6180811 1.91619
5.6100001 5.6180811 1.9154601
5.5950003 5.6180811 1.91619
5.5799999 5.6180811 1.9139999
5.5650001 5.6180811 1.91327
5.5500002 5.6180811 1.91473
5.5349998 5.6180811 1.91181
5.52 5.6180811 1.91035
5.5050001 5.6180811 1.91035
5.4900002 5.6180811 1.90451
5.4749999 5.6180811 1.90816
5.46 5.6180811 1.9001299
5.4450002 5.6180811 1.9001299
5.4299998 5.6180811 1.89429
5.415 5.6180811 1.8921001
5.4000001 5.6180811 1.8935601
5.3849998 5.6180811 1.8935601
5.3699999 5.6180811 1.89502
5.355 5.6180811 1.89429
5.3399997 5.6180811 1.89064
5.3249998 5.6180811 1.88991
5.3099999 5.6180811 1.8921001
5.2950001 5.6180811 1.8891801
5.2799997 5.6180811 1.8862599
5.2649999 5.6180811 1.88699
5.25 5.6180811 1.8848
5.2350001 5.6180811 1.88261
5.2200003 5.6180811 1.88042
5.2049999 5.6180811 1.87677
5.1900001 5.6180811 1.87312
5.1750002 5.6180811 1.8753101
5.1600003 5.6180811 1.87312
5.145 5.6180811 1.8658201
5.1300001 5.6180811 1.86071
5.1150002 5.6180811 1.8658201
5.0999999 5.6180811 1.86728
5.085 5.6180811 1.86217
5.0700002 5.6180811 1.8614401
5.0549998 5.6180811 1.8629
5.04 5.6180811 1.8629
5.0250001 5.6180811 1.8643601
5.0099998 5.6180811 1.8643601
4.9949999 5.6180811 1.8592499
4.98 5.6180811 1.8556001
4.9649997 5.6180811 1.85779
4.9499998 5.6180811 1.86071
4.9349999 5.6180811 1.8599801
4.9200001 5.6180811 1.8541399
4.9049997 5.6180811 1.85268
4.8899999 5.6180811 1.8461101
4.875 5.6180811 1.85341
4.8600001 5.6180811 1.85341
4.8450003 5.6180811 1.85195
4.8300004 5.6180811 1.84392
4.8150001 5.6180811 1.8461101
4.8000002 5.6180811 1.84392
4.7850003 5.6180811 1.84392
4.77 5.6180811 1.8461101
4.7550001 5.6180811 1.841
4.7400002 5.6180811 1.83516
4.7249999 5.6180811 1.83516
4.71 5.6180811 1.83516
4.6950002 5.6180811 1.8322401
4.6799998 5.6180811 1.8263999
4.665 5.6180811 1.82713
4.6500001 5.6180811 1.83297
4.6349998 5.6180811 1.82494
4.6199999 5.6180811 1.8278601
4.605 5.6180811 1.8278601
4.5899997 5.6180811 1.82494
4.5749998 5.6180811 1.82348
4.5599999 5.6180811 1.8191
4.5449996 5.6180811 1.8198301
4.5299997 5.6180811 1.8191
4.5149999 5.6180811 1.8169099
4.5 5.6180811 1.81618
4.4850001 5.6180811 1.81107
4.4700003 5.6180811 1.8081499
4.4549999 5.6180811 1.8081499
4.4400001 5.6180811 1.80742
4.4250002 5.6180811 1.8118
4.4100003 5.6180811 1.8088801
4.395 5.6180811 1.80742
4.3800001 5.6180811 1.8045001
4.3650002 5.6180811 1.80742
4.3499999 5.6180811 1.80523
4.335 5.6180811 1.80523
4.3200002 5.6180811 1.7993901
4.3049998 5.6180811 1.79793
4.29 5.6180811 1.7972
4.2750001 5.6180811 1.79355
4.2599998 5.6180811 1.79282
4.2449999 5.6180811 1.79282
4.23 5.6180811 1.7920901
4.2149997 5.6180811 1.79282
4.1999998 5.6180811 1.7920901
4.1849999 5.6180811 1.79355
4.1700001 5.6180811 1.79282
4.1549997 5.6180811 1.7855201
4.1399999 5.6180811 1.7898999
4.125 5.6180811 1.7906301
4.1100001 5.6180811 1.7847899
4.0950003 5.6180811 1.7847899
4.0799999 5.6180811 1.7847899
4.0650001 5.6180811 1.7811401
4.0500002 5.6180811 1.7804099
4.0350003 5.6180811 1.77749
4.02 5.6180811 1.7767601
4.0050001 5.6180811 1.7782201
3.99 5.6180811 1.77749
3.9749999 5.6180811 1.77384
3.96 5.6180811 1.76946
3.9450002 5.6180811 1.768
3.9299998 5.6180811 1.7665399
3.915 5.6180811 1.76581
3.9000001 5.6180811 1.7621599
3.8849998 5.6180811 1.7665399
3.8699999 5.6180811 1.7709199
3.855 5.6180811 1.7585101
3.8400002 5.6180811 1.7599699
3.8249998 5.6180811 1.7607
3.8099999 5.6180811 1.75632
3.7950001 5.6180811 1.75486
3.78 5.6180811 1.7570499
3.7650001 5.6180811 1.7585101
3.7500002 5.6180811 1.7577801
3.7349999 5.6180811 1.75413
3.72 5.6180811 1.74975
3.7050002 5.6180811 1.74975
3.6899998 5.6180811 1.75486
3.675 5.6180811 1.7526699
3.6600001 5.6180811 1.7482899
3.645 5.6180811 1.75194
3.6299999 5.6180811 1.7460999
3.615 5.6180811 1.7475599
3.5999999 5.6180811 1.7504801
3.585 5.6180811 1.7431799
3.5700002 5.6180811 1.7460999
3.5549998 5.6180811 1.74683
3.54 5.6180811 1.7431799
3.5250001 5.6180811 1.74026
3.5100002 5.6180811 1.74099
3.4949999 5.6180811 1.74245
3.48 5.6180811 1.7387999
3.4650002 5.6180811 1.7395301
3.4499998 5.6180811 1.7366101
3.4349999 5.6180811 1.73296
3.4200001 5.6180811 1.73807
3.405 5.6180811 1.7366101
3.3900001 5.6180811 1.7387999
3.3750002 5.6180811 1.7366101
3.3599999 5.6180811 1.7344199
3.345 5.6180811 1.7315
3.3300002 5.6180811 1.7322299
3.3149998 5.6180811 1.7307701
3.3 5.6180811 1.7293099
3.2850001 5.6180811 1.7322299
3.2699997 5.6180811 1.7366101
3.2549999 5.6180811 1.73807
3.24 5.6180811 1.7336899
3.2249999 5.6180811 1.72712
3.21 5.6180811 1.72785
3.1199999 5.6180811 1.7154399
3.105 5.6180811 1.71909
3.0899999 5.6180811 1.7212801
3.075 5.6180811 1.7205499
3.0599999 5.6180811 1.7198199
3.0449998 5.6180811 1.72201
3.03 5.6180811 1.7212801
3.0150001 5.6180811 1.7198199
3 5.6180811 1.7117901
2.9850001 5.6180811 1.7066799
2.97 5.6180811 1.70522
2.9549999 5.6180811 1.71325
2.9400001 5.6180811 1.7117901
2.925 5.6180811 1.7110599
2.9100001 5.6180811 1.7088701
2.895 5.6180811 1.7015699
2.8799999 5.6180811 1.70011
2.865 5.6180811 1.7023001
2.8499999 5.6180811 1.7059499
2.835 5.6180811 1.7059499
2.8200002 5.6180811 1.7023001
2.8050001 5.6180811 1.7023001
2.79 5.6180811 1.7066799
2.7750001 5.6180811 1.7044899
2.76 5.6180811 1.7088701
2.7450001 5.6180811 1.7088701
2.73 5.6180811 1.7030301
2.7149999 5.6180811 1.7030301
2.7 5.6180811 1.6979201
2.6849999 5.6180811 1.6971899
2.6699998 5.6180811 1.70376
2.655 5.6180811 1.70814
2.6399999 5.6180811 1.7044899
2.625 5.6180811 1.69938
2.6100001 5.6180811 1.70011
2.595 5.6180811 1.7059499
2.5800002 5.6180811 1.70522
2.5650001 5.6180811 1.70011
2.55 5.6180811 1.70522
2.5350001 5.6180811 1.6971899
2.52 5.6180811 1.69865
2.5049999 5.6180811 1.69938
2.49 5.6180811 1.69646
2.4749999 5.6180811 1.69427
2.46 5.6180811 1.6950001
2.4449999 5.6180811 1.6979201
2.4300001 5.6180811 1.69865
2.4150002 5.6180811 1.69573
2.4000001 5.6180811 1.69646
2.385 5.6180811 1.6884301
2.3700001 5.6180811 1.69573
2.355 5.6180811 1.69573
2.3399999 5.6180811 1.70011
2.325 5.6180811 1.69646
2.3099999 5.6180811 1.6950001
2.2949998 5.6180811 1.6928099
2.28 5.6180811 1.6950001
2.2649999 5.6180811 1.6979201
2.25 5.6180811 1.69573
2.2350001 5.6180811 1.69573
2.22 5.6180811 1.6891601
2.2050002 5.6180811 1.68259
2.1900001 5.6180811 1.68551
2.175 5.6180811 1.68989
2.1600001 5.6180811 1.68697
2.145 5.6180811 1.6891601
2.1299999 5.6180811 1.68989
2.115 5.6180811 1.68551
2.0999999 5.6180811 1.6840501
2.085 5.6180811 1.68551
2.0699999 5.6180811 1.68478
2.0550001 5.6180811 1.6833199
2.04 5.6180811 1.68478
2.0250001 5.6180811 1.6833199
2.01 5.6180811 1.6789399
1.995 5.6180811 1.6796701
1.98 5.6180811 1.6833199
1.9649999 5.6180811 1.67748
1.95 5.6180811 1.68551
1.9349999 5.6180811 1.68551
1.9200001 5.6180811 1.68259
1.905 5.6180811 1.68551
1.89 5.6180811 1.68551
1.8750001 5.6180811 1.68186
1.86 5.6180811 1.6752901
1.8449999 5.6180811 1.6767499
1.83 5.6180811 1.6811301
1.8149999 5.6180811 1.6796701
1.8 5.6180811 1.6796701
1.7850001 5.6180811 1.6745601
1.77 5.6180811 1.67164
1.7550001 5.6180811 1.6650699
1.74 5.6180811 1.6738299
1.7249999 5.6180811 1.6745601
1.71 5.6180811 1.67748
1.6950001 5.6180811 1.67748
1.6799999 5.6180811 1.67237
1.6650001 5.6180811 1.6701801
1.65 5.6180811 1.6694499
1.6349999 5.6180811 1.67091
1.62 5.6180811 1.6731
1.605 5.6180811 1.67237
1.5900002 5.6180811 1.67164
1.575 5.6180811 1.67091
1.5599999 5.6180811 1.67237
1.545 5.6180811 1.6738299
1.53 5.6180811 1.6745601
1.515 5.6180811 1.6738299
1.5 5.6180811 1.6752901
1.485 5.6180811 1.67237
1.47 5.6180811 1.67091
1.455 5.6180811 1.67091
1.4399999 5.6180811 1.6701801
1.425 5.6180811 1.67237
1.4100001 5.6180811 1.6767499
1.395 5.6180811 1.6738299
1.38 5.6180811 1.6752901
1.365 5.6180811 1.6752901
1.35 5.6180811 1.66872
1.3349999 5.6180811 1.6694499
1.3199999 5.6180811 1.66653
1.3050001 5.6180811 1.6694499
1.2900001 5.6180811 1.67091
1.275 5.6180811 1.6752901
1.26 5.6180811 1.6731
1.245 5.6180811 1.6701801
1.23 5.6180811 1.66653
1.215 5.6180811 1.6658001
1.2 5.6180811 1.6701801
1.1850001 5.6180811 1.66872
1.17 5.6180811 1.6701801
1.155 5.6180811 1.67164
1.14 5.6180811 1.6658001
1.125 5.6180811 1.66653
1.11 5.6180811 1.67091
1.095 5.6180811 1.67164
1.08 5.6180811 1.67237
1.0649999 5.6180811 1.67091
1.05 5.6180811 1.66799
1.035 5.6180811 1.66653
1.02 5.6180811 1.6650699
1.005 5.6180811 1.6672601
0.99000001 5.6180811 1.6694499
0.97500002 5.6180811 1.67164
0.96000004 5.6180811 1.66653
0.94499999 5.6180811 1.67091
0.93000001 5.6180811 1.67091
0.91500002 5.6180811 1.67164
0.89999998 5.6180811 1.6694499
0.88499999 5.6180811 1.6701801
0.87 5.6180811 1.67164
0.85500002 5.6180811 1.66653
0.83999997 5.6180811 1.6599599
0.82499999 5.6180811 1.66215
0.81 5.6180811 1.6643399
0.79500008 5.6180811 1.6672601
0.77999997 5.6180811 1.67164
0.76499999 5.6180811 1.67091
0.75 5.6180811 1.66361
0.73500001 5.6180811 1.66653
0.71999997 5.6180811 1.66653
0.70500004 5.6180811 1.66653
0.69 5.6180811 1.6643399
0.67500001 5.6180811 1.66361
0.65999997 5.6180811 1.6650699
0.64500004 5.6180811 1.6650699
0.63 5.6180811 1.66872
0.61500001 5.6180811 1.66653
0.60000002 5.6180811 1.6694499
0.58499998 5.6180811 1.6614201
0.56999999 5.6180811 1.66872
0.55500001 5.6180811 1.66653
0.54000002 5.6180811 1.67237
0.52499998 5.6180811 1.67164
0.50999999 5.6180811 1.6672601
0.495 5.6180811 1.66361
0.48000002 5.6180811 1.6650699
0.465 5.6180811 1.66872
0.44999999 5.6180811 1.66799
0.435 5.6180811 1.6672601
0.41999999 5.6180811 1.67091
0.405 5.6180811 1.67091
0.38999999 5.6180811 1.6650699
0.375 5.6180811 1.66872
0.35999998 5.6180811 1.6628799
0.345 5.6180811 1.6599599
0.32999998 5.6180811 1.6643399
0.315 5.6180811 1.6672601
0.30000001 5.6180811 1.6694499
0.285 5.6180811 1.6694499
0.27000001 5.6180811 1.66872
0.255 5.6180811 1.6694499
0.24000001 5.6180811 1.6650699
0.22499999 5.6180811 1.66653
0.20999999 5.6180811 1.66653
0.19499999 5.6180811 1.6658001
0.17999999 5.6180811 1.6658001
0.16499999 5.6180811 1.67164
0.15000001 5.6180811 1.67091
0.13500001 5.6180811 1.6731
0.12 5.6180811 1.67164
0.105 5.6180811 1.67164
0.089999996 5.6180811 1.6752901
0.075000003 5.6180811 1.67164
0.060000002 5.6180811 1.6672601
0.044999998 5.6180811 1.67091
0.030000001 5.6180811 1.66799
0.015000001 5.6180811 1.6650699
-0 5.6180811 1.6672601
-0.015000001 5.6180811 1.67091
-0.030000001 5.6180811 1.6731
-0.044999998 5.6180811 1.67091
-0.060000002 5.6180811 1.6672601
-0.075000003 5.6180811 1.66361
-0.089999996 5.6180811 1.66215
-0.105 5.6180811 1.6643399
-0.12 5.6180811 1.6650699
-0.13500001 5.6180811 1.6628799
-0.15000001 5.6180811 1.6658001
-0.16499999 5.6180811 1.6694499
-0.17999999 5.6180811 1.66653
-0.19499999 5.6180811 1.6672601
-0.20999999 5.6180811 1.67237
-0.22499999 5.6180811 1.66361
-0.24000001 5.6180811 1.65923
-0.255 5.6180811 1.6606901
-0.27000001 5.6180811 1.6658001
-0.285 5.6180811 1.6694499
-0.30000001 5.6180811 1.6694499
-0.315 5.6180811 1.66872
-0.32999998 5.6180811 1.67091
-0.345 5.6180811 1.6701801
-0.35999998 5.6180811 1.66872
-0.375 5.6180811 1.67164
-0.38999999 5.6180811 1.6701801
-0.405 5.6180811 1.67748
-0.41999999 5.6180811 1.6745601
-0.435 5.6180811 1.66872
-0.44999999 5.6180811 1.66799
-0.465 5.6180811 1.6694499
-0.48000002 5.6180811 1.67164
-0.495 5.6180811 1.67091
-0.50999999 5.6180811 1.66799
-0.52499998 5.6180811 1.67237
-0.54000002 5.6180811 1.6738299
-0.55500001 5.6180811 1.6738299
-0.56999999 5.6180811 1.67602
-0.58499998 5.6180811 1.66872
-0.60000002 5.6180811 1.66872
-0.61500001 5.6180811 1.6701801
-0.63 5.6180811 1.67237
-0.64500004 5.6180811 1.6731
-0.65999997 5.6180811 1.67091
-0.67500001 5.6180811 1.66872
-0.69 5.6180811 1.6694499
-0.70500004 5.6180811 1.67091
-0.71999997 5.6180811 1.6738299
-0.73500001 5.6180811 1.6767499
-0.75 5.6180811 1.67602
-0.76499999 5.6180811 1.6796701
-0.77999997 5.6180811 1.6782099
-0.79500008 5.6180811 1.6796701
-0.81 5.6180811 1.6796701
-0.82499999 5.6180811 1.6789399
-0.83999997 5.6180811 1.6789399
-0.85500002 5.6180811 1.6782099
-0.87 5.6180811 1.6767499
-0.88499999 5.6180811 1.6767499
-0.89999998 5.6180811 1.6767499
-0.91500002 5.6180811 1.6767499
-0.93000001 5.6180811 1.6782099
-0.94499999 5.6180811 1.6752901
-0.96000004 5.6180811 1.6811301
-0.97500002 5.6180811 1.6767499
-0.99000001 5.6180811 1.6796701
-1.005 5.6180811 1.6796701
-1.02 5.6180811 1.6738299
-1.035 5.6180811 1.68259
-1.05 5.6180811 1.6884301
-1.0649999 5.6180811 1.6884301
-1.08 5.6180811 1.68624
-1.095 5.6180811 1.68697
-1.11 5.6180811 1.68551
-1.125 5.6180811 1.6804
-1.14 5.6180811 1.6804
-1.155 5.6180811 1.68478
-1.17 5.6180811 1.6804
-1.1850001 5.6180811 1.68624
-1.2 5.6180811 1.6796701
-1.215 5.6180811 1.69135
-1.23 5.6180811 1.6884301
-1.245 5.6180811 1.68624
-1.26 5.6180811 1.6840501
-1.275 5.6180811 1.6811301
-1.2900001 5.6180811 1.6840501
-1.3050001 5.6180811 1.6891601
-1.3199999 5.6180811 1.6906199
-1.3349999 5.6180811 1.6884301
-1.35 5.6180811 1.6884301
-1.365 5.6180811 1.6891601
-1.38 5.6180811 1.6876999
-1.395 5.6180811 1.68989
-1.4100001 5.6180811 1.68478
-1.425 5.6180811 1.68697
-1.4399999 5.6180811 1.6920799
-1.455 5.6180811 1.69135
-1.47 5.6180811 1.6876999
-1.485 5.6180811 1.68624
-1.5 5.6180811 1.69427
-1.515 5.6180811 1.69646
-1.53 5.6180811 1.69135
-1.545 5.6180811 1.6950001
-1.5599999 5.6180811 1.69135
-1.575 5.6180811 1.69865
-1.5900002 5.6180811 1.6920799
-1.605 5.6180811 1.6950001
-1.62 5.6180811 1.68989
-1.6349999 5.6180811 1.69427
-1.65 5.6180811 1.69573
-1.6650001 5.6180811 1.6950001
-1.6799999 5.6180811 1.6935401
-1.6950001 5.6180811 1.6950001
-1.71 5.6180811 1.6979201
-1.7249999 5.6180811 1.69573
-1.74 5.6180811 1.6950001
-1.7550001 5.6180811 1.70084
-1.77 5.6180811 1.69865
-1.7850001 5.6180811 1.6979201
-1.8 5.6180811 1.69865
-1.8149999 5.6180811 1.7023001
-1.83 5.6180811 1.7023001
-1.8449999 5.6180811 1.69938
-1.86 5.6180811 1.69938
-1.8750001 5.6180811 1.70084
-1.89 5.6180811 1.70011
-1.905 5.6180811 1.70084
-1.9200001 5.6180811 1.7044899
-1.9349999 5.6180811 1.7074101
-1.95 5.6180811 1.7023001
-1.9649999 5.6180811 1.7066799
-1.98 5.6180811 1.70376
-1.995 5.6180811 1.70522
-2.01 5.6180811 1.7074101
-2.0250001 5.6180811 1.70814
-2.04 5.6180811 1.7074101
-2.0550001 5.6180811 1.7059499
-2.0699999 5.6180811 1.70376
-2.085 5.6180811 1.70376
-2.0999999 5.6180811 1.7066799
-2.115 5.6180811 1.7059499
-2.1299999 5.6180811 1.7059499
-2.145 5.6180811 1.7096
-2.1600001 5.6180811 1.7066799
-2.175 5.6180811 1.70814
-2.1900001 5.6180811 1.7059499
-2.2050002 5.6180811 1.70814
-2.22 5.6180811 1.70814
-2.2350001 5.6180811 1.71325
-2.25 5.6180811 1.7066799
-2.2649999 5.6180811 1.7088701
-2.28 5.6180811 1.71252
-2.2949998 5.6180811 1.7117901
-2.3099999 5.6180811 1.7110599
-2.325 5.6180811 1.71398
-2.3399999 5.6180811 1.7154399
-2.355 5.6180811 1.7117901
-2.3700001 5.6180811 1.7154399
-2.385 5.6180811 1.7183599
-2.4000001 5.6180811 1.71398
-2.4150002 5.6180811 1.7183599
-2.4300001 5.6180811 1.7205499
-2.4449999 5.6180811 1.7212801
-2.46 5.6180811 1.7242
-2.4749999 5.6180811 1.7242
-2.49 5.6180811 1.7212801
-2.5049999 5.6180811 1.7183599
-2.52 5.6180811 1.7205499
-2.5350001 5.6180811 1.72785
-2.55 5.6180811 1.72858
-2.5650001 5.6180811 1.72785
-2.6699998 5.6180811 1.71325
-2.6849999 5.6180811 1.71909
-2.7 5.6180811 1.7242
-2.7149999 5.6180811 1.72785
-2.73 5.6180811 1.7336899
-2.7450001 5.6180811 1.7351501
-2.76 5.6180811 1.7336899
-2.7750001 5.6180811 1.7344199
-2.79 5.6180811 1.7322299
-2.8050001 5.6180811 1.73588
-2.8200002 5.6180811 1.73807
-2.835 5.6180811 1.7387999
-2.8499999 5.6180811 1.7395301
-2.865 5.6180811 1.73734
-2.8799999 5.6180811 1.7366101
-2.895 5.6180811 1.7395301
-2.9100001 5.6180811 1.74099
-2.925 5.6180811 1.74026
-2.9400001 5.6180811 1.7395301
-2.9549999 5.6180811 1.74026
-2.97 5.6180811 1.74245
-2.9850001 5.6180811 1.74099
-3 5.6180811 1.7395301
-3.0150001 5.6180811 1.74172
-3.03 5.6180811 1.74172
-3.0449998 5.6180811 1.74537
-3.0599999 5.6180811 1.7460999
-3.075 5.6180811 1.74683
-3.0899999 5.6180811 1.7475599
-3.105 5.6180811 1.7446401
-3.1199999 5.6180811 1.7460999
-3.1350002 5.6180811 1.7490201
-3.1500001 5.6180811 1.7475599
-3.165 5.6180811 1.7526699
-3.1800003 5.6180811 1.75194
-3.1950002 5.6180811 1.75194
-3.21 5.6180811 1.75413
-3.2249999 5.6180811 1.75486
-3.24 5.6180811 1.75486
-3.2549999 5.6180811 1.7534001
-3.2699997 5.6180811 1.75559
-3.2850001 5.6180811 1.7570499
-3.3 5.6180811 1.75413
-3.3149998 5.6180811 1.75194
-3.3300002 5.6180811 1.7534001
-3.345 5.6180811 1.7599699
-3.3599999 5.6180811 1.7628901
-3.3750002 5.6180811 1.7643501
-3.3900001 5.6180811 1.76946
-3.405 5.6180811 1.76873
-3.4200001 5.6180811 1.7709199
-3.4349999 5.6180811 1.77384
-3.4499998 5.6180811 1.77457
-3.4650002 5.6180811 1.7782201
-3.48 5.6180811 1.77457
-3.4949999 5.6180811 1.7752999
-3.5100002 5.6180811 1.77749
-3.5250001 5.6180811 1.77749
-3.54 5.6180811 1.7782201
-3.5549998 5.6180811 1.77895
-3.5700002 5.6180811 1.7804099
-3.585 5.6180811 1.7782201
-3.5999999 5.6180811 1.77895
-3.615 5.6180811 1.7752999
-3.6299999 5.6180811 1.7760299
-3.645 5.6180811 1.7862501
-3.6600001 5.6180811 1.77895
-3.675 5.6180811 1.7804099
-3.6899998 5.6180811 1.78844
-3.7050002 5.6180811 1.78406
-3.72 5.6180811 1.7811401
-3.7349999 5.6180811 1.7826
-3.7500002 5.6180811 1.7855201
-3.7650001 5.6180811 1.7920901
-3.78 5.6180811 1.7950101
-3.7950001 5.6180811 1.7920901
-3.8099999 5.6180811 1.79282
-3.8249998 5.6180811 1.79136
-3.8400002 5.6180811 1.7942799
-3.855 5.6180811 1.80085
-3.8699999 5.6180811 1.8037699
-3.8849998 5.6180811 1.80158
-3.9000001 5.6180811 1.7986599
-3.915 5.6180811 1.80158
-3.9299998 5.6180811 1.80158
-3.9450002 5.6180811 1.8037699
-3.96 5.6180811 1.8059601
-3.9749999 5.6180811 1.8037699
-3.99 5.6180811 1.7986599
-4.0050001 5.6180811 1.7972
-4.02 5.6180811 1.8037699
-4.0350003 5.6180811 1.80742
-4.0500002 5.6180811 1.81326
-4.0650001 5.6180811 1.80742
-4.0799999 5.6180811 1.81107
-4.0950003 5.6180811 1.80961
-4.1100001 5.6180811 1.81107
-4.125 5.6180811 1.81107
-4.1399999 5.6180811 1.81326
-4.1549997 5.6180811 1.81107
-4.1700001 5.6180811 1.8125299
-4.1849999 5.6180811 1.8220199
-4.1999998 5.6180811 1.8227501
-4.2149997 5.6180811 1.81618
-4.23 5.6180811 1.81545
-4.2449999 5.6180811 1.8220199
-4.2599998 5.6180811 1.8220199
-4.2750001 5.6180811 1.8227501
-4.29 5.6180811 1.83005
-4.3049998 5.6180811 1.8227501
-4.3200002 5.6180811 1.82421
-4.335 5.6180811 1.82494
-4.3499999 5.6180811 1.82932
-4.3650002 5.6180811 1.8315099
-4.3800001 5.6180811 1.8315099
-4.395 5.6180811 1.8315099
-4.4100003 5.6180811 1.83516
-4.4250002 5.6180811 1.83808
-4.4400001 5.6180811 1.8366201
-4.4549999 5.6180811 1.8322401
-4.4700003 5.6180811 1.83297
-4.4850001 5.6180811 1.8402699
-4.5 5.6180811 1.83881
-4.5149999 5.6180811 1.84392
-4.5299997 5.6180811 1.84246
-4.5449996 5.6180811 1.8417301
-4.5599999 5.6180811 1.841
-4.5749998 5.6180811 1.8417301
-4.5899997 5.6180811 1.84392
-4.605 5.6180811 1.84903
-4.6199999 5.6180811 1.8483
-4.6349998 5.6180811 1.84684
-4.6500001 5.6180811 1.8483
-4.665 5.6180811 1.8475701
-4.6799998 5.6180811 1.85487
-4.6950002 5.6180811 1.85268
-4.71 5.6180811 1.8556001
-4.7249999 5.6180811 1.8592499
-4.7400002 5.6180811 1.8592499
-4.7550001 5.6180811 1.85779
-4.77 5.6180811 1.85779
-4.7850003 5.6180811 1.8636299
-4.8000002 5.6180811 1.8680099
-4.8150001 5.6180811 1.86874
-4.8300004 5.6180811 1.8680099
-4.8450003 5.6180811 1.86509
-4.8600001 5.6180811 1.8643601
-4.875 5.6180811 1.86655
-4.8899999 5.6180811 1.86728
-4.9049997 5.6180811 1.8680099
-4.9200001 5.6180811 1.86655
-4.9349999 5.6180811 1.87312
-4.9499998 5.6180811 1.87604
-4.9649997 5.6180811 1.8774999
-4.98 5.6180811 1.87312
-4.9949999 5.6180811 1.8782301
-5.0099998 5.6180811 1.8782301
-5.0250001 5.6180811 1.87677
-5.04 5.6180811 1.87312
-5.0549998 5.6180811 1.88115
-5.0700002 5.6180811 1.8818799
-5.085 5.6180811 1.88261
-5.0999999 5.6180811 1.88699
-5.1150002 5.6180811 1.8862599
-5.1300001 5.6180811 1.8818799
-5.145 5.6180811 1.88407
-5.1600003 5.6180811 1.8891801
-5.1750002 5.6180811 1.89064
-5.1900001 5.6180811 1.8848
-5.2049999 5.6180811 1.8848
-5.2200003 5.6180811 1.8957499
-5.2350001 5.6180811 1.89283
-5.25 5.6180811 1.8957499
-5.2649999 5.6180811 1.8994
-5.2799997 5.6180811 1.90086
-5.2950001 5.6180811 1.8994
-5.3099999 5.6180811 1.89867
-5.3249998 5.6180811 1.9001299
-5.3399997 5.6180811 1.9030501
-5.355 5.6180811 1.9059701
-5.3699999 5.6180811 1.90816
-5.3849998 5.6180811 1.9059701
-5.4000001 5.6180811 1.9059701
-5.415 5.6180811 1.9154601
-5.4299998 5.6180811 1.9110801
-5.4450002 5.6180811 1.91327
-5.46 5.6180811 1.91254
-5.4749999 5.6180811 1.9154601
-5.4900002 5.6180811 1.92203
-5.5050001 5.6180811 1.9139999
-5.52 5.6180811 1.91473
-5.5349998 5.6180811 1.91838
-5.5500002 5.6180811 1.92276
-5.5650001 5.6180811 1.92276
-5.5799999 5.6180811 1.92203
-5.5950003 5.6180811 1.92276
-5.6100001 5.6180811 1.9234899
-5.625 5.6180811 1.9293301
-5.6400003 5.6180811 1.93663
-5.6550002 5.6180811 1.9388201
-5.6700001 5.6180811 1.9373599
-5.6849999 5.6180811 1.9329799
-5.6999998 5.6180811 1.93152
-5.7149997 5.6180811 1.9373599
-5.73 5.6180811 1.9373599
-5.7449999 5.6180811 1.9388201
-5.7599998 5.6180811 1.93444
-5.7750001 5.6180811 1.9432001
-5.79 5.6180811 1.94539
-5.8049998 5.6180811 1.9388201
-5.8200002 5.6180811 1.9417399
-5.835 5.6180811 1.9505
5.7750001 5.7117152 1.9278699
5.7599998 5.7117152 1.9213001
5.7449999 5.7117152 1.92057
5.73 5.7117152 1.9213001
5.7149997 5.7117152 1.9198401
5.6999998 5.7117152 1.9213001
5.6849999 5.7117152 1.91765
5.6700001 5.7117152 1.9191099
5.6550002 5.7117152 1.9169201
5.6400003 5.7117152 1.91619
5.625 5.7117152 1.9067
5.6100001 5.7117152 1.9067
5.5950003 5.7117152 1.91035
5.5799999 5.7117152 1.9096199
5.5650001 5.7117152 1.9059701
5.5500002 5.7117152 1.90378
5.5349998 5.7117152 1.90086
5.52 5.7117152 1.89794
5.5050001 5.7117152 1.8957499
5.4900002 5.7117152 1.89794
5.4749999 5.7117152 1.89429
5.46 5.7117152 1.88991
5.4450002 5.7117152 1.8957499
5.4299998 5.7117152 1.8957499
5.415 5.7117152 1.8913699
5.4000001 5.7117152 1.89064
5.3849998 5.7117152 1.89064
5.3699999 5.7117152 1.8891801
5.355 5.7117152 1.8862599
5.3399997 5.7117152 1.8848
5.3249998 5.7117152 1.87896
5.3099999 5.7117152 1.87896
5.2950001 5.7117152 1.88042
5.2799997 5.7117152 1.8782301
5.2649999 5.7117152 1.8774999
5.25 5.7117152 1.87458
5.2350001 5.7117152 1.8753101
5.2200003 5.7117152 1.87166
5.2049999 5.7117152 1.86874
5.1900001 5.7117152 1.86874
5.1750002 5.7117152 1.86728
5.1600003 5.7117152 1.86655
5.145 5.7117152 1.86655
5.1300001 5.7117152 1.8658201
5.1150002 5.7117152 1.8658201
5.0999999 5.7117152 1.86217
5.085 5.7117152 1.8599801
5.0700002 5.7117152 1.85706
5.0549998 5.7117152 1.85341
5.04 5.7117152 1.85341
5.0250001 5.7117152 1.8585199
5.0099998 5.7117152 1.8592499
4.9949999 5.7117152 1.8556001
4.98 5.7117152 1.8585199
4.9649997 5.7117152 1.85633
4.9499998 5.7117152 1.85195
4.9349999 5.7117152 1.85341
4.9200001 5.7117152 1.8475701
4.9049997 5.7117152 1.84684
4.8899999 5.7117152 1.8497599
4.875 5.7117152 1.85487
4.8600001 5.7117152 1.8504901
4.8450003 5.7117152 1.84319
4.8300004 5.7117152 1.8417301
4.8150001 5.7117152 1.84392
4.8000002 5.7117152 1.84392
4.7850003 5.7117152 1.83954
4.77 5.7117152 1.8366201
4.7550001 5.7117152 1.8366201
4.7400002 5.7117152 1.8322401
4.7249999 5.7117152 1.82859
4.71 5.7117152 1.8307799
4.6950002 5.7117152 1.83005
4.6799998 5.7117152 1.82567
4.665 5.7117152 1.8278601
4.6500001 5.7117152 1.82713
4.6349998 5.7117152 1.83005
4.6199999 5.7117152 1.82713
4.605 5.7117152 1.82494
4.5899997 5.7117152 1.82056
4.5749998 5.7117152 1.8169099
4.5599999 5.7117152 1.81472
4.5449996 5.7117152 1.81472
4.5299997 5.7117152 1.81472
4.5149999 5.7117152 1.81107
4.5 5.7117152 1.80961
4.4850001 5.7117152 1.81545
4.4700003 5.7117152 1.8191
4.4549999 5.7117152 1.8139901
4.4400001 5.7117152 1.81034
4.4250002 5.7117152 1.81034
4.4100003 5.7117152 1.8030399
4.395 5.7117152 1.8045001
4.3800001 5.7117152 1.8037699
4.3650002 5.7117152 1.8037699
4.3499999 5.7117152 1.8001201
4.335 5.7117152 1.79793
4.3200002 5.7117152 1.7972
4.3049998 5.7117152 1.79793
4.29 5.7117152 1.7972
4.2750001 5.7117152 1.79647
4.2599998 5.7117152 1.79647
4.2449999 5.7117152 1.79355
4.23 5.7117152 1.78844
4.2149997 5.7117152 1.78698
4.1999998 5.7117152 1.7891699
4.1849999 5.7117152 1.78771
4.1700001 5.7117152 1.7862501
4.1549997 5.7117152 1.7862501
4.1399999 5.7117152 1.78771
4.125 5.7117152 1.78187
4.1100001 5.7117152 1.7804099
4.0950003 5.7117152 1.78406
4.0799999 5.7117152 1.7847899
4.0650001 5.7117152 1.77968
4.0500002 5.7117152 1.7767601
4.0350003 5.7117152 1.7760299
4.02 5.7117152 1.77384
4.0050001 5.7117152 1.77311
3.99 5.7117152 1.7752999
3.9749999 5.7117152 1.7752999
3.96 5.7117152 1.7723801
3.9450002 5.7117152 1.77019
3.9299998 5.7117152 1.76946
3.915 5.7117152 1.76946
3.9000001 5.7117152 1.77311
3.8849998 5.7117152 1.77019
3.8699999 5.7117152 1.7672701
3.855 5.7117152 1.768
3.8400002 5.7117152 1.76581
3.8249998 5.7117152 1.76581
3.8099999 5.7117152 1.76362
3.7950001 5.7117152 1.7599699
3.78 5.7117152 1.7585101
3.7650001 5.7117152 1.7585101
3.7500002 5.7117152 1.7570499
3.7349999 5.7117152 1.75486
3.72 5.7117152 1.7534001
3.7050002 5.7117152 1.75559
3.6899998 5.7117152 1.75194
3.675 5.7117152 1.7534001
3.6600001 5.7117152 1.74975
3.645 5.7117152 1.7504801
3.6299999 5.7117152 1.7504801
3.615 5.7117152 1.75121
3.5999999 5.7117152 1.7534001
3.585 5.7117152 1.74683
3.5700002 5.7117152 1.7475599
3.5549998 5.7117152 1.7475599
3.54 5.7117152 1.7490201
3.5250001 5.7117152 1.7504801
3.5100002 5.7117152 1.7431799
3.4949999 5.7117152 1.7366101
3.48 5.7117152 1.7387999
3.4650002 5.7117152 1.74172
3.4499998 5.7117152 1.7395301
3.4349999 5.7117152 1.7395301
3.4200001 5.7117152 1.73807
3.405 5.7117152 1.73296
3.3900001 5.7117152 1.73588
3.3750002 5.7117152 1.73734
3.3599999 5.7117152 1.7344199
3.345 5.7117152 1.7307701
3.3300002 5.7117152 1.7307701
3.3149998 5.7117152 1.7307701
3.3 5.7117152 1.7293099
3.2850001 5.7117152 1.72858
3.2699997 5.7117152 1.7293099
3.2549999 5.7117152 1.7322299
3.24 5.7117152 1.7300401
3.2249999 5.7117152 1.72347
3.21 5.7117152 1.72639
3.1950002 5.7117152 1.7293099
3.1800003 5.7117152 1.7212801
3.165 5.7117152 1.72639
3.1500001 5.7117152 1.7161701
3.1350002 5.7117152 1.7169001
3.1199999 5.7117152 1.7066799
3.0449998 5.7117152 1.71398
3.03 5.7117152 1.71325
3.0150001 5.7117152 1.71763
3 5.7117152 1.7161701
2.9850001 5.7117152 1.7161701
2.97 5.7117152 1.71252
2.9549999 5.7117152 1.71325
2.9400001 5.7117152 1.70814
2.925 5.7117152 1.7023001
2.9100001 5.7117152 1.7015699
2.895 5.7117152 1.7030301
2.8799999 5.7117152 1.7074101
2.865 5.7117152 1.71033
2.8499999 5.7117152 1.70814
2.835 5.7117152 1.7066799
2.8200002 5.7117152 1.7074101
2.8050001 5.7117152 1.70376
2.79 5.7117152 1.7088701
2.7750001 5.7117152 1.70522
2.76 5.7117152 1.7044899
2.7450001 5.7117152 1.7044899
2.73 5.7117152 1.7044899
2.7149999 5.7117152 1.7088701
2.7 5.7117152 1.7066799
2.6849999 5.7117152 1.7030301
2.6699998 5.7117152 1.7015699
2.655 5.7117152 1.70084
2.6399999 5.7117152 1.7015699
2.625 5.7117152 1.70376
2.6100001 5.7117152 1.70376
2.595 5.7117152 1.70011
2.5800002 5.7117152 1.69938
2.5650001 5.7117152 1.69573
2.55 5.7117152 1.7044899
2.5350001 5.7117152 1.70522
2.52 5.7117152 1.69938
2.5049999 5.7117152 1.6971899
2.49 5.7117152 1.69573
2.4749999 5.7117152 1.6950001
2.46 5.7117152 1.69646
2.4449999 5.7117152 1.69865
2.4300001 5.7117152 1.70011
2.4150002 5.7117152 1.69573
2.4000001 5.7117152 1.68989
2.385 5.7117152 1.68989
2.3700001 5.7117152 1.69427
2.355 5.7117152 1.69427
2.3399999 5.7117152 1.69135
2.325 5.7117152 1.6928099
2.3099999 5.7117152 1.6950001
2.2949998 5.7117152 1.6935401
2.28 5.7117152 1.6928099
2.2649999 5.7117152 1.6928099
2.25 5.7117152 1.69135
2.2350001 5.7117152 1.69135
2.22 5.7117152 1.68697
2.2050002 5.7117152 1.6891601
2.1900001 5.7117152 1.68697
2.175 5.7117152 1.68697
2.1600001 5.7117152 1.68624
2.145 5.7117152 1.68478
2.1299999 5.7117152 1.6840501
2.115 5.7117152 1.68551
2.0999999 5.7117152 1.68624
2.085 5.7117152 1.68697
2.0699999 5.7117152 1.68624
2.0550001 5.7117152 1.68697
2.04 5.7117152 1.68697
2.0250001 5.7117152 1.68478
2.01 5.7117152 1.6804
1.995 5.7117152 1.6804
1.98 5.7117152 1.6833199
1.9649999 5.7117152 1.68551
1.95 5.7117152 1.68259
1.9349999 5.7117152 1.68259
1.9200001 5.7117152 1.6796701
1.905 5.7117152 1.6782099
1.89 5.7117152 1.67164
1.8750001 5.7117152 1.6738299
1.86 5.7117152 1.67602
1.8449999 5.7117152 1.6752901
1.83 5.7117152 1.67748
1.8149999 5.7117152 1.6767499
1.8 5.7117152 1.6767499
1.7850001 5.7117152 1.67602
1.77 5.7117152 1.6731
1.7550001 5.7117152 1.6731
1.74 5.7117152 1.6731
1.7249999 5.7117152 1.6731
1.71 5.7117152 1.6752901
1.6950001 5.7117152 1.67602
1.6799999 5.7117152 1.6731
1.6650001 5.7117152 1.6767499
1.65 5.7117152 1.6789399
1.6349999 5.7117152 1.67748
1.62 5.7117152 1.6789399
1.605 5.7117152 1.67748
1.5900002 5.7117152 1.6767499
1.575 5.7117152 1.6745601
1.5599999 5.7117152 1.6767499
1.545 5.7117152 1.6782099
1.53 5.7117152 1.6782099
1.515 5.7117152 1.6789399
1.5 5.7117152 1.67748
1.485 5.7117152 1.67602
1.47 5.7117152 1.6731
1.455 5.7117152 1.67164
1.4399999 5.7117152 1.67091
1.425 5.7117152 1.67091
1.4100001 5.7117152 1.6731
1.395 5.7117152 1.6701801
1.38 5.7117152 1.6672601
1.365 5.7117152 1.6745601
1.35 5.7117152 1.6738299
1.3349999 5.7117152 1.6694499
1.3199999 5.7117152 1.6731
1.3050001 5.7117152 1.67164
1.2900001 5.7117152 1.67164
1.275 5.7117152 1.66653
1.26 5.7117152 1.6650699
1.245 5.7117152 1.67164
1.23 5.7117152 1.6752901
1.215 5.7117152 1.67237
1.2 5.7117152 1.6694499
1.1850001 5.7117152 1.67164
1.17 5.7117152 1.66653
1.155 5.7117152 1.66799
1.14 5.7117152 1.6643399
1.125 5.7117152 1.6628799
1.11 5.7117152 1.6672601
1.095 5.7117152 1.66872
1.08 5.7117152 1.6672601
1.0649999 5.7117152 1.66799
1.05 5.7117152 1.6701801
1.035 5.7117152 1.6672601
1.02 5.7117152 1.6650699
1.005 5.7117152 1.67091
0.99000001 5.7117152 1.66799
0.97500002 5.7117152 1.6643399
0.96000004 5.7117152 1.67091
0.94499999 5.7117152 1.6694499
0.93000001 5.7117152 1.66872
0.91500002 5.7117152 1.67164
0.89999998 5.7117152 1.67237
0.88499999 5.7117152 1.6643399
0.87 5.7117152 1.6658001
0.85500002 5.7117152 1.6694499
0.83999997 5.7117152 1.66872
0.82499999 5.7117152 1.67091
0.81 5.7117152 1.6658001
0.79500008 5.7117152 1.6731
0.77999997 5.7117152 1.6701801
0.76499999 5.7117152 1.67237
0.75 5.7117152 1.66215
0.73500001 5.7117152 1.66872
0.71999997 5.7117152 1.6672601
0.70500004 5.7117152 1.66361
0.69 5.7117152 1.66653
0.67500001 5.7117152 1.67091
0.65999997 5.7117152 1.67091
0.64500004 5.7117152 1.66653
0.63 5.7117152 1.66361
0.61500001 5.7117152 1.66653
0.60000002 5.7117152 1.6731
0.58499998 5.7117152 1.66653
0.56999999 5.7117152 1.66799
0.55500001 5.7117152 1.66799
0.54000002 5.7117152 1.6694499
0.52499998 5.7117152 1.6694499
0.50999999 5.7117152 1.66799
0.495 5.7117152 1.6694499
0.48000002 5.7117152 1.6701801
0.465 5.7117152 1.6694499
0.44999999 5.7117152 1.67237
0.435 5.7117152 1.6738299
0.41999999 5.7117152 1.6672601
0.405 5.7117152 1.66361
0.38999999 5.7117152 1.66799
0.375 5.7117152 1.66653
0.35999998 5.7117152 1.6701801
0.345 5.7117152 1.66872
0.32999998 5.7117152 1.66872
0.315 5.7117152 1.6658001
0.30000001 5.7117152 1.6643399
0.285 5.7117152 1.6672601
0.27000001 5.7117152 1.6658001
0.255 5.7117152 1.66215
0.24000001 5.7117152 1.6658001
0.22499999 5.7117152 1.6643399
0.20999999 5.7117152 1.66653
0.19499999 5.7117152 1.67237
0.17999999 5.7117152 1.66799
0.16499999 5.7117152 1.66799
0.15000001 5.7117152 1.67164
0.13500001 5.7117152 1.6767499
0.12 5.7117152 1.6745601
0.105 5.7117152 1.6731
0.089999996 5.7117152 1.67237
0.075000003 5.7117152 1.67091
0.060000002 5.7117152 1.67164
0.044999998 5.7117152 1.66872
0.030000001 5.7117152 1.67091
0.015000001 5.7117152 1.66799
-0 5.7117152 1.6650699
-0.015000001 5.7117152 1.66872
-0.030000001 5.7117152 1.6672601
-0.044999998 5.7117152 1.6643399
-0.060000002 5.7117152 1.66361
-0.075000003 5.7117152 1.6672601
-0.089999996 5.7117152 1.67164
-0.105 5.7117152 1.6701801
-0.12 5.7117152 1.6672601
-0.13500001 5.7117152 1.6701801
-0.15000001 5.7117152 1.67164
-0.16499999 5.7117152 1.6731
-0.17999999 5.7117152 1.6672601
-0.19499999 5.7117152 1.6694499
-0.20999999 5.7117152 1.67091
-0.22499999 5.7117152 1.6731
-0.24000001 5.7117152 1.6738299
-0.255 5.7117152 1.6738299
-0.27000001 5.7117152 1.67164
-0.285 5.7117152 1.67237
-0.30000001 5.7117152 1.67602
-0.315 5.7117152 1.67237
-0.32999998 5.7117152 1.66799
-0.345 5.7117152 1.66799
-0.35999998 5.7117152 1.66799
-0.375 5.7117152 1.67164
-0.38999999 5.7117152 1.6738299
-0.405 5.7117152 1.6752901
-0.41999999 5.7117152 1.66872
-0.435 5.7117152 1.6701801
-0.44999999 5.7117152 1.6731
-0.465 5.7117152 1.6752901
-0.48000002 5.7117152 1.6731
-0.495 5.7117152 1.67237
-0.50999999 5.7117152 1.6752901
-0.52499998 5.7117152 1.6738299
-0.54000002 5.7117152 1.6752901
-0.55500001 5.7117152 1.67091
-0.56999999 5.7117152 1.67091
-0.58499998 5.7117152 1.6701801
-0.60000002 5.7117152 1.6745601
-0.61500001 5.7117152 1.6752901
-0.63 5.7117152 1.6738299
-0.64500004 5.7117152 1.6745601
-0.65999997 5.7117152 1.6767499
-0.67500001 5.7117152 1.6745601
-0.69 5.7117152 1.6738299
-0.70500004 5.7117152 1.67748
-0.71999997 5.7117152 1.67748
-0.73500001 5.7117152 1.67237
-0.75 5.7117152 1.67602
-0.76499999 5.7117152 1.68259
-0.77999997 5.7117152 1.6811301
-0.79500008 5.7117152 1.6782099
-0.81 5.7117152 1.6767499
-0.82499999 5.7117152 1.6789399
-0.83999997 5.7117152 1.68186
-0.85500002 5.7117152 1.68259
-0.87 5.7117152 1.68186
-0.88499999 5.7117152 1.6789399
-0.89999998 5.7117152 1.67748
-0.91500002 5.7117152 1.6804
-0.93000001 5.7117152 1.6804
-0.94499999 5.7117152 1.6811301
-0.96000004 5.7117152 1.6840501
-0.97500002 5.7117152 1.68186
-0.99000001 5.7117152 1.68186
-1.005 5.7117152 1.68259
-1.02 5.7117152 1.6833199
-1.035 5.7117152 1.68186
-1.05 5.7117152 1.6811301
-1.0649999 5.7117152 1.68186
-1.08 5.7117152 1.6804
-1.095 5.7117152 1.6804
-1.11 5.7117152 1.6833199
-1.125 5.7117152 1.6840501
-1.14 5.7117152 1.6811301
-1.155 5.7117152 1.6811301
-1.17 5.7117152 1.6840501
-1.1850001 5.7117152 1.68186
-1.2 5.7117152 1.68551
-1.215 5.7117152 1.67748
-1.23 5.7117152 1.68186
-1.245 5.7117152 1.68551
-1.26 5.7117152 1.68624
-1.275 5.7117152 1.6840501
-1.2900001 5.7117152 1.68697
-1.3050001 5.7117152 1.68989
-1.3199999 5.7117152 1.6920799
-1.3349999 5.7117152 1.6928099
-1.35 5.7117152 1.6876999
-1.365 5.7117152 1.68624
-1.38 5.7117152 1.6833199
-1.395 5.7117152 1.6840501
-1.4100001 5.7117152 1.68478
-1.425 5.7117152 1.6935401
-1.4399999 5.7117152 1.6876999
-1.455 5.7117152 1.6876999
-1.47 5.7117152 1.6891601
-1.485 5.7117152 1.6920799
-1.5 5.7117152 1.6928099
-1.515 5.7117152 1.6906199
-1.53 5.7117152 1.6891601
-1.545 5.7117152 1.6906199
-1.5599999 5.7117152 1.6935401
-1.575 5.7117152 1.69135
-1.5900002 5.7117152 1.69573
-1.605 5.7117152 1.69573
-1.62 5.7117152 1.6891601
-1.6349999 5.7117152 1.6920799
-1.65 5.7117152 1.6979201
-1.6650001 5.7117152 1.70011
-1.6799999 5.7117152 1.6950001
-1.6950001 5.7117152 1.6928099
-1.71 5.7117152 1.6971899
-1.7249999 5.7117152 1.69573
-1.74 5.7117152 1.69427
-1.7550001 5.7117152 1.69938
-1.77 5.7117152 1.70011
-1.7850001 5.7117152 1.6950001
-1.8 5.7117152 1.69573
-1.8149999 5.7117152 1.70084
-1.83 5.7117152 1.70084
-1.8449999 5.7117152 1.7044899
-1.86 5.7117152 1.70376
-1.8750001 5.7117152 1.7044899
-1.89 5.7117152 1.70814
-1.905 5.7117152 1.70522
-1.9200001 5.7117152 1.7015699
-1.9349999 5.7117152 1.70376
-1.95 5.7117152 1.7059499
-1.9649999 5.7117152 1.7015699
-1.98 5.7117152 1.7088701
-1.995 5.7117152 1.7088701
-2.01 5.7117152 1.70814
-2.0250001 5.7117152 1.70522
-2.04 5.7117152 1.70084
-2.0550001 5.7117152 1.70376
-2.0699999 5.7117152 1.7074101
-2.085 5.7117152 1.7044899
-2.0999999 5.7117152 1.70011
-2.115 5.7117152 1.70376
-2.1299999 5.7117152 1.7066799
-2.145 5.7117152 1.7074101
-2.1600001 5.7117152 1.7074101
-2.175 5.7117152 1.70814
-2.1900001 5.7117152 1.70814
-2.2050002 5.7117152 1.71252
-2.22 5.7117152 1.7074101
-2.2350001 5.7117152 1.7088701
-2.25 5.7117152 1.71033
-2.2649999 5.7117152 1.71252
-2.28 5.7117152 1.71471
-2.2949998 5.7117152 1.71471
-2.3099999 5.7117152 1.71325
-2.325 5.7117152 1.71398
-2.3399999 5.7117152 1.7117901
-2.355 5.7117152 1.7117901
-2.3700001 5.7117152 1.7212801
-2.385 5.7117152 1.71471
-2.4000001 5.7117152 1.71471
-2.4150002 5.7117152 1.7110599
-2.4300001 5.7117152 1.7169001
-2.4449999 5.7117152 1.7198199
-2.46 5.7117152 1.72201
-2.4749999 5.7117152 1.7256601
-2.49 5.7117152 1.72201
-2.5049999 5.7117152 1.71909
-2.52 5.7117152 1.72201
-2.5350001 5.7117152 1.7227401
-2.55 5.7117152 1.7227401
-2.5650001 5.7117152 1.7227401
-2.5800002 5.7117152 1.7242
-2.595 5.7117152 1.7227401
-2.6100001 5.7117152 1.72201
-2.625 5.7117152 1.7183599
-2.6399999 5.7117152 1.7183599
-2.655 5.7117152 1.7293099
-2.7450001 5.7117152 1.7074101
-2.76 5.7117152 1.7183599
-2.7750001 5.7117152 1.7256601
-2.79 5.7117152 1.72858
-2.8050001 5.7117152 1.7315
-2.8200002 5.7117152 1.73296
-2.835 5.7117152 1.7336899
-2.8499999 5.7117152 1.73588
-2.865 5.7117152 1.74026
-2.8799999 5.7117152 1.74172
-2.895 5.7117152 1.74172
-2.9100001 5.7117152 1.7439101
-2.925 5.7117152 1.7387999
-2.9400001 5.7117152 1.73807
-2.9549999 5.7117152 1.7315
-2.97 5.7117152 1.73588
-2.9850001 5.7117152 1.7387999
-3 5.7117152 1.73734
-3.0150001 5.7117152 1.74172
-3.03 5.7117152 1.74245
-3.0449998 5.7117152 1.74026
-3.0599999 5.7117152 1.74172
-3.075 5.7117152 1.7446401
-3.0899999 5.7117152 1.7439101
-3.105 5.7117152 1.7460999
-3.1199999 5.7117152 1.74975
-3.1350002 5.7117152 1.7482899
-3.1500001 5.7117152 1.7460999
-3.165 5.7117152 1.7490201
-3.1800003 5.7117152 1.75121
-3.1950002 5.7117152 1.74975
-3.21 5.7117152 1.7475599
-3.2249999 5.7117152 1.75486
-3.24 5.7117152 1.7599699
-3.2549999 5.7117152 1.7599699
-3.2699997 5.7117152 1.7585101
-3.2850001 5.7117152 1.75924
-3.3 5.7117152 1.7585101
-3.3149998 5.7117152 1.75486
-3.3300002 5.7117152 1.75559
-3.345 5.7117152 1.7599699
-3.3599999 5.7117152 1.7643501
-3.3750002 5.7117152 1.76508
-3.3900001 5.7117152 1.7665399
-3.405 5.7117152 1.76581
-3.4200001 5.7117152 1.7643501
-3.4349999 5.7117152 1.77384
-3.4499998 5.7117152 1.77384
-3.4650002 5.7117152 1.7709199
-3.48 5.7117152 1.76946
-3.4949999 5.7117152 1.7716501
-3.5100002 5.7117152 1.77311
-3.5250001 5.7117152 1.7760299
-3.54 5.7117152 1.7767601
-3.5549998 5.7117152 1.77384
-3.5700002 5.7117152 1.77749
-3.585 5.7117152 1.77749
-3.5999999 5.7117152 1.78333
-3.615 5.7117152 1.7804099
-3.6299999 5.7117152 1.7804099
-3.645 5.7117152 1.7782201
-3.6600001 5.7117152 1.77749
-3.675 5.7117152 1.7811401
-3.6899998 5.7117152 1.7847899
-3.7050002 5.7117152 1.78406
-3.72 5.7117152 1.7847899
-3.7349999 5.7117152 1.78771
-3.7500002 5.7117152 1.7906301
-3.7650001 5.7117152 1.79355
-3.78 5.7117152 1.7950101
-3.7950001 5.7117152 1.7972
-3.8099999 5.7117152 1.7942799
-3.8249998 5.7117152 1.79647
-3.8400002 5.7117152 1.79355
-3.855 5.7117152 1.79574
-3.8699999 5.7117152 1.79355
-3.8849998 5.7117152 1.79282
-3.9000001 5.7117152 1.7950101
-3.915 5.7117152 1.80158
-3.9299998 5.7117152 1.8037699
-3.9450002 5.7117152 1.80085
-3.96 5.7117152 1.80231
-3.9749999 5.7117152 1.8059601
-3.99 5.7117152 1.8059601
-4.0050001 5.7117152 1.8045001
-4.02 5.7117152 1.8045001
-4.0350003 5.7117152 1.80742
-4.0500002 5.7117152 1.80523
-4.0650001 5.7117152 1.80961
-4.0799999 5.7117152 1.8118
-4.0950003 5.7117152 1.8081499
-4.1100001 5.7117152 1.80669
-4.125 5.7117152 1.81034
-4.1399999 5.7117152 1.81472
-4.1549997 5.7117152 1.8169099
-4.1700001 5.7117152 1.81618
-4.1849999 5.7117152 1.8125299
-4.1999998 5.7117152 1.81472
-4.2149997 5.7117152 1.82056
-4.23 5.7117152 1.8198301
-4.2449999 5.7117152 1.8220199
-4.2599998 5.7117152 1.8227501
-4.2750001 5.7117152 1.82494
-4.29 5.7117152 1.82348
-4.3049998 5.7117152 1.8220199
-4.3200002 5.7117152 1.82348
-4.335 5.7117152 1.82494
-4.3499999 5.7117152 1.82932
-4.3650002 5.7117152 1.82932
-4.3800001 5.7117152 1.83005
-4.395 5.7117152 1.8315099
-4.4100003 5.7117152 1.83005
-4.4250002 5.7117152 1.8337001
-4.4400001 5.7117152 1.83735
-4.4549999 5.7117152 1.8366201
-4.4700003 5.7117152 1.83954
-4.4850001 5.7117152 1.83954
-4.5 5.7117152 1.841
-4.5149999 5.7117152 1.83954
-4.5299997 5.7117152 1.8402699
-4.5449996 5.7117152 1.83954
-4.5599999 5.7117152 1.8402699
-4.5749998 5.7117152 1.84319
-4.5899997 5.7117152 1.8461101
-4.605 5.7117152 1.8453799
-4.6199999 5.7117152 1.84319
-4.6349998 5.7117152 1.8453799
-4.6500001 5.7117152 1.84903
-4.665 5.7117152 1.85195
-4.6799998 5.7117152 1.85195
-4.6950002 5.7117152 1.8497599
-4.71 5.7117152 1.85195
-4.7249999 5.7117152 1.8556001
-4.7400002 5.7117152 1.8556001
-4.7550001 5.7117152 1.85779
-4.77 5.7117152 1.8592499
-4.7850003 5.7117152 1.85633
-4.8000002 5.7117152 1.8614401
-4.8150001 5.7117152 1.8629
-4.8300004 5.7117152 1.86217
-4.8450003 5.7117152 1.8629
-4.8600001 5.7117152 1.86509
-4.875 5.7117152 1.86874
-4.8899999 5.7117152 1.8702
-4.9049997 5.7117152 1.8658201
-4.9200001 5.7117152 1.86509
-4.9349999 5.7117152 1.87093
-4.9499998 5.7117152 1.87312
-4.9649997 5.7117152 1.8796901
-4.98 5.7117152 1.88261
-4.9949999 5.7117152 1.88845
-5.0099998 5.7117152 1.88553
-5.0250001 5.7117152 1.8877201
-5.04 5.7117152 1.88042
-5.0549998 5.7117152 1.88115
-5.0700002 5.7117152 1.8818799
-5.085 5.7117152 1.88407
-5.0999999 5.7117152 1.88553
-5.1150002 5.7117152 1.8862599
-5.1300001 5.7117152 1.8891801
-5.145 5.7117152 1.88991
-5.1600003 5.7117152 1.8921001
-5.1750002 5.7117152 1.8921001
-5.1900001 5.7117152 1.8913699
-5.2049999 5.7117152 1.8972101
-5.2200003 5.7117152 1.8935601
-5.2350001 5.7117152 1.8957499
-5.25 5.7117152 1.8957499
-5.2649999 5.7117152 1.9001299
-5.2799997 5.7117152 1.90232
-5.2950001 5.7117152 1.9067
-5.3099999 5.7117152 1.90889
-5.3249998 5.7117152 1.9052399
-5.3399997 5.7117152 1.9015901
-5.355 5.7117152 1.9052399
-5.3699999 5.7117152 1.90889
-5.3849998 5.7117152 1.9067
-5.4000001 5.7117152 1.9074301
-5.415 5.7117152 1.90816
-5.4299998 5.7117152 1.90816
-5.4450002 5.7117152 1.91181
-5.46 5.7117152 1.9096199
-5.4749999 5.7117152 1.91473
-5.4900002 5.7117152 1.91473
-5.5050001 5.7117152 1.9154601
-5.52 5.7117152 1.91838
-5.5349998 5.7117152 1.92422
-5.5500002 5.7117152 1.92276
-5.5650001 5.7117152 1.9213001
-5.5799999 5.7117152 1.9234899
-5.5950003 5.7117152 1.9293301
-5.6100001 5.7117152 1.93152
-5.625 5.7117152 1.9286
-5.6400003 5.7117152 1.9278699
-5.6550002 5.7117152 1.9337101
-5.6700001 5.7117152 1.93809
-5.6849999 5.7117152 1.94101
-5.6999998 5.7117152 1.94028
-5.7149997 5.7117152 1.93955
-5.73 5.7117152 1.9388201
-5.7449999 5.7117152 1.94101
-5.7599998 5.7117152 1.93955
-5.7750001 5.7117152 1.94539
-5.79 5.7117152 1.9432001
-5.8049998 5.7117152 1.94101
-5.8200002 5.7117152 1.94539
-5.835 5.7117152 1.9468499
5.7750001 5.8053493 1.9110801
5.7599998 5.8053493 1.90816
5.7449999 5.8053493 1.9059701
5.73 5.8053493 1.90451
5.7149997 5.8053493 1.90086
5.6999998 5.8053493 1.9030501
5.6849999 5.8053493 1.9015901
5.6700001 5.8053493 1.9001299
5.6550002 5.8053493 1.89502
5.6400003 5.8053493 1.89502
5.625 5.8053493 1.89429
5.6100001 5.8053493 1.8913699
5.5950003 5.8053493 1.89429
5.5799999 5.8053493 1.89429
5.5650001 5.8053493 1.89283
5.5500002 5.8053493 1.88991
5.5349998 5.8053493 1.88261
5.52 5.8053493 1.8782301
5.5050001 5.8053493 1.8774999
5.4900002 5.8053493 1.87604
5.4749999 5.8053493 1.8738501
5.46 5.8053493 1.86655
5.4450002 5.8053493 1.8629
5.4299998 5.8053493 1.86728
5.415 5.8053493 1.8702
5.4000001 5.8053493 1.8592499
5.3849998 5.8053493 1.85268
5.3699999 5.8053493 1.85122
5.355 5.8053493 1.85341
5.3399997 5.8053493 1.8504901
5.3249998 5.8053493 1.8497599
5.3099999 5.8053493 1.8461101
5.2950001 5.8053493 1.84684
5.2799997 5.8053493 1.84319
5.2649999 5.8053493 1.83954
5.25 5.8053493 1.83516
5.2350001 5.8053493 1.83516
5.2200003 5.8053493 1.83808
5.2049999 5.8053493 1.83735
5.1900001 5.8053493 1.8337001
5.1750002 5.8053493 1.8307799
5.1600003 5.8053493 1.82859
5.145 5.8053493 1.8263999
5.1300001 5.8053493 1.8220199
5.1150002 5.8053493 1.8191
5.0999999 5.8053493 1.82056
5.085 5.8053493 1.82129
5.0700002 5.8053493 1.8176399
5.0549998 5.8053493 1.8176399
5.04 5.8053493 1.81326
5.0250001 5.8053493 1.8125299
5.0099998 5.8053493 1.81618
4.9949999 5.8053493 1.8176399
4.98 5.8053493 1.8169099
4.9649997 5.8053493 1.81326
4.9499998 5.8053493 1.8125299
4.9349999 5.8053493 1.8139901
4.9200001 5.8053493 1.80961
4.9049997 5.8053493 1.8037699
4.8899999 5.8053493 1.80158
4.875 5.8053493 1.8037699
4.8600001 5.8053493 1.80158
4.8450003 5.8053493 1.8045001
4.8300004 5.8053493 1.80669
4.8150001 5.8053493 1.8045001
4.8000002 5.8053493 1.80158
4.7850003 5.8053493 1.79793
4.77 5.8053493 1.7972
4.7550001 5.8053493 1.7942799
4.7400002 5.8053493 1.79647
4.7249999 5.8053493 1.79793
4.71 5.8053493 1.7942799
4.6950002 5.8053493 1.79282
4.6799998 5.8053493 1.7942799
4.665 5.8053493 1.79282
4.6500001 5.8053493 1.78844
4.6349998 5.8053493 1.7847899
4.6199999 5.8053493 1.78698
4.605 5.8053493 1.78844
4.5899997 5.8053493 1.7804099
4.5749998 5.8053493 1.7847899
4.5599999 5.8053493 1.78187
4.5449996 5.8053493 1.7804099
4.5299997 5.8053493 1.7752999
4.5149999 5.8053493 1.76946
4.5 5.8053493 1.7723801
4.4850001 5.8053493 1.7723801
4.4700003 5.8053493 1.77457
4.4549999 5.8053493 1.77384
4.4400001 5.8053493 1.76946
4.4250002 5.8053493 1.76946
4.4100003 5.8053493 1.7709199
4.395 5.8053493 1.7709199
4.3800001 5.8053493 1.77384
4.3650002 5.8053493 1.76946
4.3499999 5.8053493 1.76946
4.335 5.8053493 1.7643501
4.3200002 5.8053493 1.7665399
4.3049998 5.8053493 1.768
4.29 5.8053493 1.768
4.2750001 5.8053493 1.7665399
4.2599998 5.8053493 1.76508
4.2449999 5.8053493 1.7643501
4.23 5.8053493 1.7607
4.2149997 5.8053493 1.7570499
4.1999998 5.8053493 1.7577801
4.1849999 5.8053493 1.7577801
4.1700001 5.8053493 1.75486
4.1549997 5.8053493 1.75413
4.1399999 5.8053493 1.75486
4.125 5.8053493 1.7504801
4.1100001 5.8053493 1.74537
4.0950003 5.8053493 1.74683
4.0799999 5.8053493 1.74537
4.0650001 5.8053493 1.7395301
4.0500002 5.8053493 1.74245
4.0350003 5.8053493 1.7439101
4.02 5.8053493 1.74537
4.0050001 5.8053493 1.74172
3.99 5.8053493 1.74537
3.9749999 5.8053493 1.7439101
3.96 5.8053493 1.74099
3.9450002 5.8053493 1.7395301
3.9299998 5.8053493 1.7395301
3.915 5.8053493 1.74026
3.9000001 5.8053493 1.7387999
3.8849998 5.8053493 1.7387999
3.8699999 5.8053493 1.73588
3.855 5.8053493 1.7387999
3.8400002 5.8053493 1.73296
3.8249998 5.8053493 1.7344199
3.8099999 5.8053493 1.72858
3.7950001 5.8053493 1.72347
3.78 5.8053493 1.72639
3.7650001 5.8053493 1.7322299
3.7500002 5.8053493 1.7322299
3.7349999 5.8053493 1.7315
3.72 5.8053493 1.7315
3.7050002 5.8053493 1.72712
3.6899998 5.8053493 1.72347
3.675 5.8053493 1.7256601
3.6600001 5.8053493 1.7293099
3.645 5.8053493 1.7242
3.6299999 5.8053493 1.72347
3.615 5.8053493 1.7227401
3.5999999 5.8053493 1.7212801
3.585 5.8053493 1.7154399
3.5700002 5.8053493 1.7117901
3.5549998 5.8053493 1.7169001
3.54 5.8053493 1.7169001
3.5250001 5.8053493 1.71471
3.5100002 5.8053493 1.71252
3.4949999 5.8053493 1.70814
3.48 5.8053493 1.7088701
3.4650002 5.8053493 1.7096
3.4499998 5.8053493 1.7066799
3.4349999 5.8053493 1.7088701
3.4200001 5.8053493 1.71033
3.405 5.8053493 1.70814
3.3900001 5.8053493 1.7059499
3.3750002 5.8053493 1.7066799
3.3599999 5.8053493 1.7015699
3.345 5.8053493 1.7015699
3.3300002 5.8053493 1.6971899
3.3149998 5.8053493 1.7015699
3.3 5.8053493 1.70084
3.2850001 5.8053493 1.69938
3.2699997 5.8053493 1.70084
3.2549999 5.8053493 1.70084
3.24 5.8053493 1.70011
3.2249999 5.8053493 1.6971899
3.21 5.8053493 1.69427
3.1950002 5.8053493 1.6928099
3.1800003 5.8053493 1.69573
3.165 5.8053493 1.6950001
3.1500001 5.8053493 1.69427
3.1350002 5.8053493 1.6928099
3.1199999 5.8053493 1.6920799
