# .PCD v0.7 - Point Cloud Data file format
VERSION 0.7
FIELDS x y z
SIZE 4 4 4
TYPE F F F
COUNT 1 1 1
WIDTH 1471
HEIGHT 1
VIEWPOINT 0 0 0 1 0 0 0
POINTS 1471
DATA ascii
-0.0285 0.0084268013 0.0109047
-0.028650001 0.0084268013 0.0108536
-0.0288 0.0084268013 0.0108901
-0.02895 0.0084268013 0.0109193
-0.029100001 0.0084268013 0.0109339
-0.02925 0.0084268013 0.0109193
-0.0294 0.0084268013 0.0109704
-0.029549999 0.0084268013 0.0109631
-0.0297 0.0084268013 0.0109266
-0.029850001 0.0084268013 0.0108974
-0.029999999 0.0084268013 0.010912
-0.03015 0.0084268013 0.010985
-0.030300001 0.0084268013 0.0109193
-0.030449999 0.0084268013 0.0109047
-0.0306 0.0084268013 0.0109047
-0.030750001 0.0084268013 0.0109412
-0.0309 0.0084268013 0.0109558
-0.03105 0.0084268013 0.0109412
-0.031199999 0.0084268013 0.0109558
-0.031350002 0.0084268013 0.0110069
-0.031500001 0.0084268013 0.0109631
-0.031649999 0.0084268013 0.0108901
-0.031800002 0.0084268013 0.0108609
-0.031950001 0.0084268013 0.0109193
-0.032099999 0.0084268013 0.0108901
-0.032249998 0.0084268013 0.0108682
-0.032400001 0.0084268013 0.0108974
-0.03255 0.0084268013 0.0109266
-0.032699998 0.0084268013 0.0109193
-0.032850001 0.0084268013 -inf
-0.033 0.0084268013 -inf
-0.033149999 0.0084268013 -inf
-0.033300001 0.0084268013 -inf
-0.03345 0.0084268013 -inf
0.03345 0.0093631418 -inf
0.033300001 0.0093631418 -inf
0.033149999 0.0093631418 -inf
0.033 0.0093631418 0.0108171
0.032850001 0.0093631418 0.0108317
0.032699998 0.0093631418 0.0108244
0.03255 0.0093631418 0.0108171
0.032400001 0.0093631418 0.0108098
0.032249998 0.0093631418 0.0108025
0.032099999 0.0093631418 0.0108536
0.031950001 0.0093631418 0.0109339
0.031800002 0.0093631418 0.0109485
0.031649999 0.0093631418 0.0109047
0.031500001 0.0093631418 0.0109047
0.031350002 0.0093631418 0.0108755
0.031199999 0.0093631418 0.0108536
0.03105 0.0093631418 0.0109047
0.0309 0.0093631418 0.0109485
0.030750001 0.0093631418 0.0109412
0.0306 0.0093631418 0.0108901
0.030449999 0.0093631418 0.0108609
0.030300001 0.0093631418 0.0108463
0.03015 0.0093631418 0.0109193
0.029999999 0.0093631418 0.0109631
0.029850001 0.0093631418 0.0109704
0.0297 0.0093631418 0.0108609
0.029549999 0.0093631418 0.0107514
0.0294 0.0093631418 0.0107587
0.02925 0.0093631418 0.0108098
0.029100001 0.0093631418 0.0108536
0.02895 0.0093631418 0.0108755
0.0288 0.0093631418 0.0108098
0.028650001 0.0093631418 0.0107587
0.0285 0.0093631418 0.0108171
0.028349999 0.0093631418 0.0108755
0.028200001 0.0093631418 0.0109047
0.02805 0.0093631418 0.0108901
0.027899999 0.0093631418 0.010839
0.02775 0.0093631418 0.0107514
0.0276 0.0093631418 0.0106784
0.027450001 0.0093631418 0.0108609
0.0273 0.0093631418 0.0114449
0.02715 0.0093631418 0.0118537
0.027000001 0.0093631418 0.0121311
0.02685 0.0093631418 0.0124596
0.026699999 0.0093631418 0.0119705
0.026550001 0.0093631418 0.0114522
0.0264 0.0093631418 0.0112697
0.026249999 0.0093631418 0.0111456
0.0261 0.0093631418 0.0109631
0.02595 0.0093631418 0.0108098
0.025800001 0.0093631418 0.0107295
0.02565 0.0093631418 0.0107222
0.0255 0.0093631418 0.0108098
0.025350001 0.0093631418 0.0108244
0.0252 0.0093631418 0.0108244
0.025049999 0.0093631418 0.0108536
0.024900001 0.0093631418 0.0113427
0.02475 0.0093631418 0.012518
0.024599999 0.0093631418 0.0137371
0.02445 0.0093631418 0.0149635
0.0243 0.0093631418 0.0129852
0.024150001 0.0093631418 0.0125107
0.024 0.0093631418 0.0113573
0.02385 0.0093631418 0.0111164
0.023700001 0.0093631418 0.0109339
0.02355 0.0093631418 0.0108755
0.023399999 0.0093631418 0.010839
0.023250001 0.0093631418 0.0108244
0.0231 0.0093631418 0.0108317
0.022949999 0.0093631418 0.0108682
0.0228 0.0093631418 0.0108244
0.02265 0.0093631418 0.0107368
0.022500001 0.0093631418 0.0107879
0.02235 0.0093631418 0.0108828
0.0222 0.0093631418 0.0109558
0.022050001 0.0093631418 0.0109631
0.0219 0.0093631418 0.0109047
0.021749999 0.0093631418 0.0108974
0.021600001 0.0093631418 0.0108974
0.02145 0.0093631418 0.0109047
0.021299999 0.0093631418 0.010912
0.02115 0.0093631418 0.0108974
0.021 0.0093631418 0.0108828
0.020850001 0.0093631418 0.0108536
0.0207 0.0093631418 0.0108536
0.02055 0.0093631418 0.0108828
0.020400001 0.0093631418 0.0108682
0.02025 0.0093631418 0.0108609
0.020099999 0.0093631418 0.0108317
0.019950001 0.0093631418 0.0107952
0.0198 0.0093631418 0.010766
0.019649999 0.0093631418 0.010766
0.0195 0.0093631418 0.010766
0.01935 0.0093631418 0.010766
0.019200001 0.0093631418 0.0108025
0.01905 0.0093631418 0.0108244
0.0189 0.0093631418 0.0107952
0.018750001 0.0093631418 0.0108317
0.0186 0.0093631418 0.0107514
0.018449999 0.0093631418 0.0108098
0.018300001 0.0093631418 0.0107952
0.01815 0.0093631418 0.0107879
0.017999999 0.0093631418 0.0107733
0.01785 0.0093631418 0.0107879
0.0177 0.0093631418 0.0108025
0.017550001 0.0093631418 0.0108025
0.0174 0.0093631418 0.0108171
0.01725 0.0093631418 0.010766
0.017100001 0.0093631418 0.0108609
0.01695 0.0093631418 0.010912
0.016799999 0.0093631418 0.0109704
0.016650001 0.0093631418 0.0109193
0.0165 0.0093631418 0.0108682
0.016349999 0.0093631418 0.0108536
0.0162 0.0093631418 0.0108828
0.01605 0.0093631418 0.0109339
0.015900001 0.0093631418 0.0109558
0.01575 0.0093631418 0.0108682
0.0156 0.0093631418 0.0108682
0.01545 0.0093631418 0.0109266
0.0153 0.0093631418 0.0108755
0.01515 0.0093631418 0.0107952
0.015 0.0093631418 0.0107733
0.01485 0.0093631418 0.0108755
0.0147 0.0093631418 0.0110069
0.01455 0.0093631418 0.0109631
0.0144 0.0093631418 0.0108682
0.01425 0.0093631418 0.0108901
0.0141 0.0093631418 0.0108974
0.01395 0.0093631418 0.010912
0.0138 0.0093631418 0.0109266
0.01365 0.0093631418 0.0109485
0.0135 0.0093631418 0.0109631
0.01335 0.0093631418 0.0109631
0.0132 0.0093631418 0.0109339
0.01305 0.0093631418 0.0109558
0.0129 0.0093631418 0.0109558
0.01275 0.0093631418 0.0110069
0.0126 0.0093631418 0.0109923
0.01245 0.0093631418 0.0109631
0.0123 0.0093631418 0.0109339
0.01215 0.0093631418 0.0109266
0.012 0.0093631418 0.0109266
0.01185 0.0093631418 0.0108828
0.0117 0.0093631418 0.0108682
0.01155 0.0093631418 0.010839
0.0114 0.0093631418 0.0107222
0.01125 0.0093631418 0.0108536
0.0111 0.0093631418 0.0109266
0.01095 0.0093631418 0.0109193
0.0108 0.0093631418 0.0108828
0.01065 0.0093631418 0.0109266
0.0105 0.0093631418 0.0109996
0.01035 0.0093631418 0.0109339
0.0102 0.0093631418 0.0109485
0.01005 0.0093631418 0.0110142
0.0098999999 0.0093631418 0.0109631
0.0097500002 0.0093631418 0.0109047
0.0096000005 0.0093631418 0.0108755
0.0094499998 0.0093631418 0.0108463
0.0093 0.0093631418 0.0108098
0.0091500003 0.0093631418 0.0108171
0.0089999996 0.0093631418 0.0108609
0.0088499999 0.0093631418 0.0108755
0.0087000001 0.0093631418 0.010839
0.0085500004 0.0093631418 0.0108098
0.0083999997 0.0093631418 0.0107149
0.00825 0.0093631418 0.0108025
0.0081000002 0.0093631418 0.0108609
0.0079500005 0.0093631418 0.0108609
0.0077999998 0.0093631418 0.010839
0.00765 0.0093631418 0.0108171
0.0074999998 0.0093631418 0.0107952
0.0073500001 0.0093631418 0.0108098
0.0071999999 0.0093631418 0.010839
0.0070500001 0.0093631418 0.0108171
0.0068999999 0.0093631418 0.0107587
0.0067500002 0.0093631418 0.0107514
0.0066 0.0093631418 0.0107806
0.0064500002 0.0093631418 0.0108463
0.0063 0.0093631418 0.0108755
0.0061499998 0.0093631418 0.0107733
0.0060000001 0.0093631418 0.0107149
0.0058499998 0.0093631418 0.0107806
0.0057000001 0.0093631418 0.0108098
0.0055499999 0.0093631418 0.0108536
0.0054000001 0.0093631418 0.0108755
0.0052499999 0.0093631418 0.0108828
0.0051000002 0.0093631418 0.0108901
0.00495 0.0093631418 0.0108682
0.0048000002 0.0093631418 0.0108171
0.00465 0.0093631418 0.0108244
0.0044999998 0.0093631418 0.0108098
0.0043500001 0.0093631418 0.0108244
0.0041999999 0.0093631418 0.0108025
0.0040500001 0.0093631418 0.0107514
0.0038999999 0.0093631418 0.0108171
0.0037499999 0.0093631418 0.0108974
0.0035999999 0.0093631418 0.0108609
0.00345 0.0093631418 0.0108025
0.0033 0.0093631418 0.0108536
0.00315 0.0093631418 0.011058
0.003 0.0093631418 0.0109777
0.00285 0.0093631418 0.0109485
0.0027000001 0.0093631418 0.0109412
0.0025500001 0.0093631418 0.010985
0.0024000001 0.0093631418 0.0110288
0.0022499999 0.0093631418 0.0110215
0.0020999999 0.0093631418 0.0109923
0.0019499999 0.0093631418 0.0109412
0.0018 0.0093631418 0.0109485
0.00165 0.0093631418 0.0109704
0.0015 0.0093631418 0.0109631
0.00135 0.0093631418 0.0109047
0.0012000001 0.0093631418 0.0108828
0.00105 0.0093631418 0.0108901
0.00089999998 0.0093631418 0.0108755
0.00075000001 0.0093631418 0.0108682
0.00060000003 0.0093631418 0.0109558
0.00044999999 0.0093631418 0.0110945
0.00030000001 0.0093631418 0.0110434
0.00015000001 0.0093631418 0.0110069
7.1054277e-18 0.0093631418 0.010912
-0.00015000001 0.0093631418 0.010912
-0.00030000001 0.0093631418 0.0109339
-0.00044999999 0.0093631418 0.0109558
-0.00060000003 0.0093631418 0.0109923
-0.00075000001 0.0093631418 0.010985
-0.00089999998 0.0093631418 0.0109485
-0.00105 0.0093631418 0.0109996
-0.0012000001 0.0093631418 0.010912
-0.00135 0.0093631418 0.0108609
-0.0015 0.0093631418 0.0108463
-0.00165 0.0093631418 0.0108171
-0.0018 0.0093631418 0.0108171
-0.0019499999 0.0093631418 0.0108317
-0.0020999999 0.0093631418 0.0108317
-0.0022499999 0.0093631418 0.0108682
-0.0024000001 0.0093631418 0.0108244
-0.0025500001 0.0093631418 0.0107806
-0.0027000001 0.0093631418 0.0108244
-0.00285 0.0093631418 0.010839
-0.003 0.0093631418 0.0108609
-0.00315 0.0093631418 0.0108609
-0.0033 0.0093631418 0.0108463
-0.00345 0.0093631418 0.0108463
-0.0035999999 0.0093631418 0.0108609
-0.0037499999 0.0093631418 0.010839
-0.0038999999 0.0093631418 0.010839
-0.0040500001 0.0093631418 0.0108755
-0.0041999999 0.0093631418 0.0109047
-0.0043500001 0.0093631418 0.0110361
-0.0044999998 0.0093631418 0.011058
-0.00465 0.0093631418 0.0110069
-0.0048000002 0.0093631418 0.011058
-0.00495 0.0093631418 0.011058
-0.0051000002 0.0093631418 0.0110799
-0.0052499999 0.0093631418 0.0109631
-0.0054000001 0.0093631418 0.0109339
-0.0055499999 0.0093631418 0.0110726
-0.0057000001 0.0093631418 0.0114011
-0.0058499998 0.0093631418 0.0116055
-0.0060000001 0.0093631418 0.0116347
-0.0061499998 0.0093631418 0.0115909
-0.0063 0.0093631418 0.0116493
-0.0064500002 0.0093631418 0.0116931
-0.0066 0.0093631418 0.0115836
-0.0067500002 0.0093631418 0.0115398
-0.0068999999 0.0093631418 0.0115252
-0.0070500001 0.0093631418 0.0114595
-0.0071999999 0.0093631418 0.0113646
-0.0073500001 0.0093631418 0.0112843
-0.0074999998 0.0093631418 0.0112113
-0.00765 0.0093631418 0.0111675
-0.0077999998 0.0093631418 0.0112113
-0.0079500005 0.0093631418 0.0112332
-0.0081000002 0.0093631418 0.0112332
-0.00825 0.0093631418 0.0113427
-0.0083999997 0.0093631418 0.0113792
-0.0085500004 0.0093631418 0.0113354
-0.0087000001 0.0093631418 0.0112989
-0.0088499999 0.0093631418 0.0112332
-0.0089999996 0.0093631418 0.0110726
-0.0091500003 0.0093631418 0.0110288
-0.0093 0.0093631418 0.0110142
-0.0094499998 0.0093631418 0.0110288
-0.0096000005 0.0093631418 0.0110142
-0.0097500002 0.0093631418 0.0110069
-0.0098999999 0.0093631418 0.0109485
-0.01005 0.0093631418 0.0108682
-0.0102 0.0093631418 0.0108244
-0.01035 0.0093631418 0.0108025
-0.0105 0.0093631418 0.0108025
-0.01065 0.0093631418 0.0108609
-0.0108 0.0093631418 0.0108536
-0.01095 0.0093631418 0.0108828
-0.0111 0.0093631418 0.0108536
-0.01125 0.0093631418 0.0108317
-0.0114 0.0093631418 0.0108171
-0.01155 0.0093631418 0.0108463
-0.0117 0.0093631418 0.0108828
-0.01185 0.0093631418 0.0108609
-0.012 0.0093631418 0.0109412
-0.01215 0.0093631418 0.0109631
-0.0123 0.0093631418 0.0110288
-0.01245 0.0093631418 0.0110069
-0.0126 0.0093631418 0.0110069
-0.01275 0.0093631418 0.0110288
-0.0129 0.0093631418 0.0110726
-0.01305 0.0093631418 0.0110945
-0.0132 0.0093631418 0.0110799
-0.01335 0.0093631418 0.0111237
-0.0135 0.0093631418 0.0110215
-0.01365 0.0093631418 0.0110069
-0.0138 0.0093631418 0.0109412
-0.01395 0.0093631418 0.0107806
-0.0141 0.0093631418 0.0107368
-0.01425 0.0093631418 0.0107587
-0.0144 0.0093631418 0.0107368
-0.01455 0.0093631418 0.0107149
-0.0147 0.0093631418 0.010766
-0.01485 0.0093631418 0.0106857
-0.015 0.0093631418 0.0106784
-0.01515 0.0093631418 0.010839
-0.0153 0.0093631418 0.0108536
-0.01545 0.0093631418 0.0108682
-0.0156 0.0093631418 0.0108463
-0.01575 0.0093631418 0.0108244
-0.015900001 0.0093631418 0.0140437
-0.01605 0.0093631418 0.0146715
-0.0162 0.0093631418 0.0108828
-0.016349999 0.0093631418 0.010912
-0.0165 0.0093631418 0.0108682
-0.016650001 0.0093631418 0.0108974
-0.016799999 0.0093631418 0.0108755
-0.01695 0.0093631418 0.010912
-0.017100001 0.0093631418 0.0109485
-0.01725 0.0093631418 0.0109412
-0.0174 0.0093631418 0.0109412
-0.017550001 0.0093631418 0.0109339
-0.0177 0.0093631418 0.0108901
-0.01785 0.0093631418 0.0108974
-0.017999999 0.0093631418 0.0108463
-0.01815 0.0093631418 0.0109339
-0.018300001 0.0093631418 0.0109558
-0.018449999 0.0093631418 0.0109485
-0.0186 0.0093631418 0.0109631
-0.018750001 0.0093631418 0.0109996
-0.0189 0.0093631418 0.010985
-0.01905 0.0093631418 0.0109047
-0.019200001 0.0093631418 0.0109047
-0.01935 0.0093631418 0.0108755
-0.0195 0.0093631418 0.0108682
-0.019649999 0.0093631418 0.0109047
-0.0198 0.0093631418 0.0109631
-0.019950001 0.0093631418 0.0109923
-0.020099999 0.0093631418 0.0109777
-0.02025 0.0093631418 0.0109704
-0.020400001 0.0093631418 0.0108901
-0.02055 0.0093631418 0.0108828
-0.0207 0.0093631418 0.0108828
-0.020850001 0.0093631418 0.0109631
-0.021 0.0093631418 0.0109777
-0.02115 0.0093631418 0.010912
-0.021299999 0.0093631418 0.0108901
-0.02145 0.0093631418 0.0109558
-0.021600001 0.0093631418 0.0109923
-0.021749999 0.0093631418 0.0109631
-0.0219 0.0093631418 0.0109485
-0.022050001 0.0093631418 0.0109996
-0.0222 0.0093631418 0.0109558
-0.02235 0.0093631418 0.0109339
-0.022500001 0.0093631418 0.0109704
-0.02265 0.0093631418 0.0110069
-0.0228 0.0093631418 0.0109996
-0.022949999 0.0093631418 0.0109777
-0.0231 0.0093631418 0.0109704
-0.023250001 0.0093631418 0.0109266
-0.023399999 0.0093631418 0.0109485
-0.02355 0.0093631418 0.0110215
-0.023700001 0.0093631418 0.011715
-0.02385 0.0093631418 0.0128027
-0.024 0.0093631418 0.0140145
-0.024150001 0.0093631418 0.0149489
-0.0243 0.0093631418 0.0132991
-0.02445 0.0093631418 0.0120508
-0.024599999 0.0093631418 0.0112624
-0.02475 0.0093631418 0.0110799
-0.024900001 0.0093631418 0.0110142
-0.025049999 0.0093631418 0.0110069
-0.0252 0.0093631418 0.0109704
-0.025350001 0.0093631418 0.0109193
-0.0255 0.0093631418 0.0109047
-0.02565 0.0093631418 0.0109339
-0.025800001 0.0093631418 0.0109339
-0.02595 0.0093631418 0.0109996
-0.0261 0.0093631418 0.0110288
-0.026249999 0.0093631418 0.0110507
-0.0264 0.0093631418 0.0130363
-0.026550001 0.0093631418 0.0137736
-0.026699999 0.0093631418 0.0137225
-0.02685 0.0093631418 0.0129633
-0.027000001 0.0093631418 0.0118099
-0.02715 0.0093631418 0.0110507
-0.0273 0.0093631418 0.0110361
-0.027450001 0.0093631418 0.0110288
-0.0276 0.0093631418 0.0110434
-0.02775 0.0093631418 0.010912
-0.027899999 0.0093631418 0.0108901
-0.02805 0.0093631418 0.0109485
-0.028200001 0.0093631418 0.0109631
-0.028349999 0.0093631418 0.0109193
-0.0285 0.0093631418 0.0108755
-0.028650001 0.0093631418 0.0108682
-0.0288 0.0093631418 0.0109631
-0.02895 0.0093631418 0.0111237
-0.029100001 0.0093631418 0.0110653
-0.02925 0.0093631418 0.0110215
-0.0294 0.0093631418 0.010985
-0.029549999 0.0093631418 0.0109339
-0.0297 0.0093631418 0.0109193
-0.029850001 0.0093631418 0.0109339
-0.029999999 0.0093631418 0.0108828
-0.03015 0.0093631418 0.0108828
-0.030300001 0.0093631418 0.0109996
-0.030449999 0.0093631418 0.0109923
-0.0306 0.0093631418 0.0109047
-0.030750001 0.0093631418 0.010912
-0.0309 0.0093631418 0.0109193
-0.03105 0.0093631418 0.0108901
-0.031199999 0.0093631418 0.0108974
-0.031350002 0.0093631418 0.010985
-0.031500001 0.0093631418 0.0110434
-0.031649999 0.0093631418 0.0110726
-0.031800002 0.0093631418 0.0109777
-0.031950001 0.0093631418 0.0109704
-0.032099999 0.0093631418 0.0109558
-0.032249998 0.0093631418 0.0108828
-0.032400001 0.0093631418 0.010912
-0.03255 0.0093631418 0.0109996
-0.032699998 0.0093631418 -inf
-0.032850001 0.0093631418 -inf
-0.033 0.0093631418 -inf
-0.033149999 0.0093631418 -inf
-0.033300001 0.0093631418 -inf
-0.03345 0.0093631418 -inf
0.03345 0.010299483 -inf
0.033300001 0.010299483 -inf
0.033149999 0.010299483 -inf
0.033 0.010299483 0.0108828
0.032850001 0.010299483 0.0107514
0.032699998 0.010299483 0.010839
0.03255 0.010299483 0.0108536
0.032400001 0.010299483 0.0108171
0.032249998 0.010299483 0.0108244
0.032099999 0.010299483 0.0108755
0.031950001 0.010299483 0.0108828
0.031800002 0.010299483 0.0107952
0.031649999 0.010299483 0.0107295
0.031500001 0.010299483 0.0106638
0.031350002 0.010299483 0.010839
0.031199999 0.010299483 0.010912
0.03105 0.010299483 0.0108536
0.0309 0.010299483 0.0108025
0.030750001 0.010299483 0.0107733
0.0306 0.010299483 0.010766
0.030449999 0.010299483 0.0107806
0.030300001 0.010299483 0.0107514
0.03015 0.010299483 0.0107733
0.029999999 0.010299483 0.0108317
0.029850001 0.010299483 0.0107952
0.0297 0.010299483 0.0107733
0.029549999 0.010299483 0.0107149
0.0294 0.010299483 0.0107149
0.02925 0.010299483 0.0107441
0.029100001 0.010299483 0.0107806
0.02895 0.010299483 0.0108171
0.0288 0.010299483 0.0108025
0.028650001 0.010299483 0.010839
0.0285 0.010299483 0.0108682
0.028349999 0.010299483 0.0108755
0.028200001 0.010299483 0.0108682
0.02805 0.010299483 0.0108682
0.027899999 0.010299483 0.010839
0.02775 0.010299483 0.0107733
0.0276 0.010299483 0.0107441
0.027450001 0.010299483 0.0108244
0.0273 0.010299483 -inf
0.02715 0.010299483 -inf
0.027000001 0.010299483 -inf
0.02685 0.010299483 -inf
0.026699999 0.010299483 -inf
0.026550001 0.010299483 0.0109266
0.0264 0.010299483 0.0172776
0.026249999 0.010299483 0.01719
0.0261 0.010299483 0.0107149
0.02595 0.010299483 0.010693
0.025800001 0.010299483 0.0106857
0.02565 0.010299483 0.0105543
0.0255 0.010299483 0.0107003
0.025350001 0.010299483 0.0107733
0.0252 0.010299483 0.0108025
0.025049999 0.010299483 0.0108317
0.024900001 0.010299483 0.0108171
0.02475 0.010299483 0.010693
0.024599999 0.010299483 -inf
0.02445 0.010299483 -inf
0.0243 0.010299483 -inf
0.024150001 0.010299483 -inf
0.024 0.010299483 0.0110142
0.02385 0.010299483 0.0172338
0.023700001 0.010299483 0.0107222
0.02355 0.010299483 0.0106857
0.023399999 0.010299483 0.010693
0.023250001 0.010299483 0.0107222
0.0231 0.010299483 0.010766
0.022949999 0.010299483 0.0108244
0.0228 0.010299483 0.0108098
0.02265 0.010299483 0.0107514
0.022500001 0.010299483 0.010766
0.02235 0.010299483 0.0107879
0.0222 0.010299483 0.0107952
0.022050001 0.010299483 0.0107952
0.0219 0.010299483 0.0107952
0.021749999 0.010299483 0.0108463
0.021600001 0.010299483 0.0108755
0.02145 0.010299483 0.0108098
0.021299999 0.010299483 0.0108098
0.02115 0.010299483 0.0107003
0.021 0.010299483 0.0107149
0.020850001 0.010299483 0.0106638
0.0207 0.010299483 0.0106638
0.02055 0.010299483 0.0107222
0.020400001 0.010299483 0.0107514
0.02025 0.010299483 0.0107514
0.020099999 0.010299483 0.0107149
0.019950001 0.010299483 0.0106127
0.0198 0.010299483 0.0106419
0.019649999 0.010299483 0.0107514
0.0195 0.010299483 0.0107952
0.01935 0.010299483 0.0107806
0.019200001 0.010299483 0.0107295
0.01905 0.010299483 0.0107368
0.0189 0.010299483 0.0108025
0.018750001 0.010299483 0.0108098
0.0186 0.010299483 0.0108463
0.018449999 0.010299483 0.010839
0.018300001 0.010299483 0.0107952
0.01815 0.010299483 0.0108171
0.017999999 0.010299483 0.0108098
0.01785 0.010299483 0.0108025
0.0177 0.010299483 0.0108317
0.017550001 0.010299483 0.0108463
0.0174 0.010299483 0.0108317
0.01725 0.010299483 0.010839
0.017100001 0.010299483 0.0108536
0.01695 0.010299483 0.0108025
0.016799999 0.010299483 0.0107441
0.016650001 0.010299483 0.0107222
0.0165 0.010299483 0.0107222
0.016349999 0.010299483 0.0107222
0.0162 0.010299483 0.0107076
0.01605 0.010299483 0.0107222
0.015900001 0.010299483 0.0107003
0.01575 0.010299483 0.0106857
0.0156 0.010299483 0.0107441
0.01545 0.010299483 0.0107441
0.0153 0.010299483 0.0107514
0.01515 0.010299483 0.0107368
0.015 0.010299483 0.0107952
0.01485 0.010299483 0.0108974
0.0147 0.010299483 0.0109412
0.01455 0.010299483 0.0108828
0.0144 0.010299483 0.0108536
0.01425 0.010299483 0.0109704
0.0141 0.010299483 0.0110434
0.01395 0.010299483 0.0111456
0.0138 0.010299483 0.0111967
0.01365 0.010299483 0.0112478
0.0135 0.010299483 0.0113135
0.01335 0.010299483 0.011277
0.0132 0.010299483 0.0112843
0.01305 0.010299483 0.0112332
0.0129 0.010299483 0.0112186
0.01275 0.010299483 0.0112478
0.0126 0.010299483 0.0112478
0.01245 0.010299483 0.0111821
0.0123 0.010299483 0.0110434
0.01215 0.010299483 0.0109339
0.012 0.010299483 0.0108828
0.01185 0.010299483 0.0108463
0.0117 0.010299483 0.0108244
0.01155 0.010299483 0.0107587
0.0114 0.010299483 0.0106857
0.01125 0.010299483 0.0108244
0.0111 0.010299483 0.0108828
0.01095 0.010299483 0.0108974
0.0108 0.010299483 0.0109558
0.01065 0.010299483 0.0110653
0.0105 0.010299483 0.0111748
0.01035 0.010299483 0.0111894
0.0102 0.010299483 0.0111529
0.01005 0.010299483 0.0111602
0.0098999999 0.010299483 0.0110653
0.0097500002 0.010299483 0.0109266
0.0096000005 0.010299483 0.0108828
0.0094499998 0.010299483 0.010839
0.0093 0.010299483 0.0108025
0.0091500003 0.010299483 0.0108025
0.0089999996 0.010299483 0.0108463
0.0088499999 0.010299483 0.0108828
0.0087000001 0.010299483 0.0108098
0.0085500004 0.010299483 0.0106857
0.0083999997 0.010299483 0.0108025
0.00825 0.010299483 0.0108755
0.0081000002 0.010299483 0.0108317
0.0079500005 0.010299483 0.0107806
0.0077999998 0.010299483 0.0107733
0.00765 0.010299483 0.0107587
0.0074999998 0.010299483 0.0107368
0.0073500001 0.010299483 0.010766
0.0071999999 0.010299483 0.0107295
0.0070500001 0.010299483 0.0107441
0.0068999999 0.010299483 0.0107733
0.0067500002 0.010299483 0.0108171
0.0066 0.010299483 0.0108463
0.0064500002 0.010299483 0.0108171
0.0063 0.010299483 0.0107733
0.0061499998 0.010299483 0.0108025
0.0060000001 0.010299483 0.0108682
0.0058499998 0.010299483 0.0108609
0.0057000001 0.010299483 0.0108536
0.0055499999 0.010299483 0.010839
0.0054000001 0.010299483 0.0108609
0.0052499999 0.010299483 0.0108755
0.0051000002 0.010299483 0.0108317
0.00495 0.010299483 0.0107514
0.0048000002 0.010299483 0.0107003
0.00465 0.010299483 0.0108536
0.0044999998 0.010299483 0.0108317
0.0043500001 0.010299483 0.0108098
0.0041999999 0.010299483 0.010839
0.0040500001 0.010299483 0.0108974
0.0038999999 0.010299483 0.0108682
0.0037499999 0.010299483 0.0108025
0.0035999999 0.010299483 0.0108098
0.00345 0.010299483 0.0108974
0.0033 0.010299483 0.0108828
0.00315 0.010299483 0.0107222
0.003 0.010299483 0.0107003
0.00285 0.010299483 0.0106857
0.0027000001 0.010299483 0.0107295
0.0025500001 0.010299483 0.0107806
0.0024000001 0.010299483 0.0108025
0.0022499999 0.010299483 0.010766
0.0020999999 0.010299483 0.0107222
0.0019499999 0.010299483 0.0107149
0.0018 0.010299483 0.0108171
0.00165 0.010299483 0.0107514
0.0015 0.010299483 0.0107076
0.00135 0.010299483 0.0107076
0.0012000001 0.010299483 0.0108098
0.00105 0.010299483 0.0108755
0.00089999998 0.010299483 0.0108609
0.00075000001 0.010299483 0.0108536
0.00060000003 0.010299483 0.0108536
0.00044999999 0.010299483 0.0109266
0.00030000001 0.010299483 0.0110288
0.00015000001 0.010299483 0.0110361
7.1054277e-18 0.010299483 0.0110726
-0.00015000001 0.010299483 0.0110507
-0.00030000001 0.010299483 0.0110288
-0.00044999999 0.010299483 0.0110434
-0.00060000003 0.010299483 0.011058
-0.00075000001 0.010299483 0.0110726
-0.00089999998 0.010299483 0.011058
-0.00105 0.010299483 0.0109558
-0.0012000001 0.010299483 0.0108901
-0.00135 0.010299483 0.0109339
-0.0015 0.010299483 0.0109485
-0.00165 0.010299483 0.0109485
-0.0018 0.010299483 0.0109558
-0.0019499999 0.010299483 0.0109193
-0.0020999999 0.010299483 0.0108755
-0.0022499999 0.010299483 0.0109339
-0.0024000001 0.010299483 0.0108682
-0.0025500001 0.010299483 0.0109996
-0.0027000001 0.010299483 0.0110142
-0.00285 0.010299483 0.0110069
-0.003 0.010299483 0.0110069
-0.00315 0.010299483 0.0110215
-0.0033 0.010299483 0.0110142
-0.00345 0.010299483 0.0110361
-0.0035999999 0.010299483 0.0110142
-0.0037499999 0.010299483 0.0110288
-0.0038999999 0.010299483 0.0109923
-0.0040500001 0.010299483 0.0110288
-0.0041999999 0.010299483 0.0109996
-0.0043500001 0.010299483 0.0109412
-0.0044999998 0.010299483 0.010912
-0.00465 0.010299483 0.0109266
-0.0048000002 0.010299483 0.0109339
-0.00495 0.010299483 0.0108536
-0.0051000002 0.010299483 0.0108463
-0.0052499999 0.010299483 0.0108025
-0.0054000001 0.010299483 0.0109047
-0.0055499999 0.010299483 0.0112186
-0.0057000001 0.010299483 0.0116712
-0.0058499998 0.010299483 0.0121092
-0.0060000001 0.010299483 0.0124158
-0.0061499998 0.010299483 0.0124596
-0.0063 0.010299483 0.0124596
-0.0064500002 0.010299483 0.0125034
-0.0066 0.010299483 0.0125107
-0.0067500002 0.010299483 0.0125107
-0.0068999999 0.010299483 0.0124961
-0.0070500001 0.010299483 0.0124888
-0.0071999999 0.010299483 0.0125034
-0.0073500001 0.010299483 0.0125326
-0.0074999998 0.010299483 0.0125545
-0.00765 0.010299483 0.0125253
-0.0077999998 0.010299483 0.0125837
-0.0079500005 0.010299483 0.0125545
-0.0081000002 0.010299483 0.0125472
-0.00825 0.010299483 0.0125837
-0.0083999997 0.010299483 0.012591
-0.0085500004 0.010299483 0.0125034
-0.0087000001 0.010299483 0.0122844
-0.0088499999 0.010299483 0.0119048
-0.0089999996 0.010299483 0.0114814
-0.0091500003 0.010299483 0.0110653
-0.0093 0.010299483 0.0108609
-0.0094499998 0.010299483 0.010839
-0.0096000005 0.010299483 0.0108171
-0.0097500002 0.010299483 0.0108463
-0.0098999999 0.010299483 0.0108609
-0.01005 0.010299483 0.010839
-0.0102 0.010299483 0.0108463
-0.01035 0.010299483 0.010912
-0.0105 0.010299483 0.0109777
-0.01065 0.010299483 0.0110069
-0.0108 0.010299483 0.0110945
-0.01095 0.010299483 0.010985
-0.0111 0.010299483 0.0110288
-0.01125 0.010299483 0.0110215
-0.0114 0.010299483 0.0109996
-0.01155 0.010299483 0.0109777
-0.0117 0.010299483 0.0109558
-0.01185 0.010299483 0.0109339
-0.012 0.010299483 0.0108609
-0.01215 0.010299483 0.0108755
-0.0123 0.010299483 0.0108609
-0.01245 0.010299483 0.0108463
-0.0126 0.010299483 0.0108682
-0.01275 0.010299483 0.0108828
-0.0129 0.010299483 0.0109631
-0.01305 0.010299483 0.0111091
-0.0132 0.010299483 0.0112259
-0.01335 0.010299483 0.0112113
-0.0135 0.010299483 0.0111967
-0.01365 0.010299483 0.0112405
-0.0138 0.010299483 0.0113792
-0.01395 0.010299483 0.0113135
-0.0141 0.010299483 0.0111675
-0.01425 0.010299483 0.0110069
-0.0144 0.010299483 0.010912
-0.01455 0.010299483 0.0108974
-0.0147 0.010299483 0.010912
-0.01485 0.010299483 0.0109485
-0.015 0.010299483 0.0109266
-0.01515 0.010299483 0.0109266
-0.0153 0.010299483 0.0108828
-0.01545 0.010299483 0.0108244
-0.0156 0.010299483 0.0108098
-0.01575 0.010299483 0.0108171
-0.015900001 0.010299483 0.0108609
-0.01605 0.010299483 0.0109558
-0.0162 0.010299483 0.0109412
-0.016349999 0.010299483 0.0108755
-0.0165 0.010299483 0.0108609
-0.016650001 0.010299483 0.0108828
-0.016799999 0.010299483 0.0108974
-0.01695 0.010299483 0.0108974
-0.017100001 0.010299483 0.0109047
-0.01725 0.010299483 0.0109412
-0.0174 0.010299483 0.0109558
-0.017550001 0.010299483 0.0109412
-0.0177 0.010299483 0.0109412
-0.01785 0.010299483 0.0109996
-0.017999999 0.010299483 0.0108755
-0.01815 0.010299483 0.0107952
-0.018300001 0.010299483 0.0107733
-0.018449999 0.010299483 0.0107806
-0.0186 0.010299483 0.0107952
-0.018750001 0.010299483 0.0108317
-0.0189 0.010299483 0.0108828
-0.01905 0.010299483 0.0108244
-0.019200001 0.010299483 0.0107368
-0.01935 0.010299483 0.0107295
-0.0195 0.010299483 0.0107222
-0.019649999 0.010299483 0.0108244
-0.0198 0.010299483 0.0108828
-0.019950001 0.010299483 0.0108901
-0.020099999 0.010299483 0.0108098
-0.02025 0.010299483 0.0106857
-0.020400001 0.010299483 0.0107222
-0.02055 0.010299483 0.0107587
-0.0207 0.010299483 0.0107587
-0.020850001 0.010299483 0.0108171
-0.021 0.010299483 0.0109047
-0.02115 0.010299483 0.0109412
-0.021299999 0.010299483 0.0109412
-0.02145 0.010299483 0.0109047
-0.021600001 0.010299483 0.0108609
-0.021749999 0.010299483 0.0108828
-0.0219 0.010299483 0.0109047
-0.022050001 0.010299483 0.0108682
-0.0222 0.010299483 0.0108609
-0.02235 0.010299483 0.0108755
-0.022500001 0.010299483 0.0109193
-0.02265 0.010299483 0.0109266
-0.0228 0.010299483 0.010912
-0.022949999 0.010299483 0.0109412
-0.0231 0.010299483 0.0109485
-0.023250001 0.010299483 0.0109558
-0.023399999 0.010299483 0.0108317
-0.02355 0.010299483 0.0108755
-0.023700001 0.010299483 0.0109266
-0.02385 0.010299483 0.0164527
-0.024 0.010299483 0.0165038
-0.024150001 0.010299483 0.0160293
-0.0243 0.010299483 0.0131604
-0.02445 0.010299483 0.0108828
-0.024599999 0.010299483 0.0108463
-0.02475 0.010299483 0.0108025
-0.024900001 0.010299483 0.0108463
-0.025049999 0.010299483 0.0108755
-0.0252 0.010299483 0.0108828
-0.025350001 0.010299483 0.0108682
-0.0255 0.010299483 0.0108828
-0.02565 0.010299483 0.0108463
-0.025800001 0.010299483 0.0107149
-0.02595 0.010299483 0.010693
-0.0261 0.010299483 0.0107806
-0.026249999 0.010299483 0.0108901
-0.0264 0.010299483 0.016387001
-0.026550001 0.010299483 0.0163651
-0.026699999 0.010299483 0.0164381
-0.02685 0.010299483 0.0151971
-0.027000001 0.010299483 0.0126056
-0.02715 0.010299483 0.0108755
-0.0273 0.010299483 0.0108901
-0.027450001 0.010299483 0.0108828
-0.0276 0.010299483 0.0108901
-0.02775 0.010299483 0.0108536
-0.027899999 0.010299483 0.0109047
-0.02805 0.010299483 0.0109558
-0.028200001 0.010299483 0.0109777
-0.028349999 0.010299483 0.010985
-0.0285 0.010299483 0.0109704
-0.028650001 0.010299483 0.0109266
-0.0288 0.010299483 0.0108682
-0.02895 0.010299483 0.0108828
-0.029100001 0.010299483 0.0108901
-0.02925 0.010299483 0.0108974
-0.0294 0.010299483 0.0109193
-0.029549999 0.010299483 0.0109266
-0.0297 0.010299483 0.0108901
-0.029850001 0.010299483 0.0108317
-0.029999999 0.010299483 0.0108098
-0.03015 0.010299483 0.0108463
-0.030300001 0.010299483 0.010912
-0.030449999 0.010299483 0.010912
-0.0306 0.010299483 0.0108682
-0.030750001 0.010299483 0.0107733
-0.0309 0.010299483 0.0107806
-0.03105 0.010299483 0.0108171
-0.031199999 0.010299483 0.0108536
-0.031350002 0.010299483 0.0109412
-0.031500001 0.010299483 0.010985
-0.031649999 0.010299483 0.0109266
-0.031800002 0.010299483 0.010985
-0.031950001 0.010299483 0.0109558
-0.032099999 0.010299483 0.0109412
-0.032249998 0.010299483 0.0109339
-0.032400001 0.010299483 0.0109193
-0.03255 0.010299483 0.0109412
-0.032699998 0.010299483 -inf
-0.032850001 0.010299483 -inf
-0.033 0.010299483 -inf
-0.033149999 0.010299483 -inf
-0.033300001 0.010299483 -inf
-0.03345 0.010299483 -inf
0.03345 0.011235824 -inf
0.033300001 0.011235824 -inf
0.033149999 0.011235824 -inf
0.033 0.011235824 0.010839
0.032850001 0.011235824 0.0108463
0.032699998 0.011235824 0.0107879
0.03255 0.011235824 0.0108025
0.032400001 0.011235824 0.0107879
0.032249998 0.011235824 0.0108025
0.032099999 0.011235824 0.0108317
0.031950001 0.011235824 0.0108463
0.031800002 0.011235824 0.0107952
0.031649999 0.011235824 0.0107076
0.031500001 0.011235824 0.0106419
0.031350002 0.011235824 0.0107368
0.031199999 0.011235824 0.0108317
0.03105 0.011235824 0.0108536
0.0309 0.011235824 0.0108317
0.030750001 0.011235824 0.0108317
0.0306 0.011235824 0.010839
0.030449999 0.011235824 0.0107952
0.030300001 0.011235824 0.0107879
0.03015 0.011235824 0.0107733
0.029999999 0.011235824 0.0108317
0.029850001 0.011235824 0.0108901
0.0297 0.011235824 0.0108463
0.029549999 0.011235824 0.0108244
0.0294 0.011235824 0.0108244
0.02925 0.011235824 0.0108171
0.029100001 0.011235824 0.0108098
0.02895 0.011235824 0.0108317
0.0288 0.011235824 0.0108463
0.028650001 0.011235824 0.0107952
0.0285 0.011235824 0.0108025
0.028349999 0.011235824 0.0108536
0.028200001 0.011235824 0.0109047
0.02805 0.011235824 0.0108901
0.027899999 0.011235824 0.0108317
0.02775 0.011235824 0.0107879
0.0276 0.011235824 0.0107733
0.027450001 0.011235824 0.0110361
0.0273 0.011235824 0.0121457
0.02715 0.011235824 0.0132115
0.027000001 0.011235824 0.0143211
0.02685 0.011235824 0.0142262
0.026699999 0.011235824 0.0108974
0.026550001 0.011235824 0.0108463
0.0264 0.011235824 0.0108463
0.026249999 0.011235824 0.0108463
0.0261 0.011235824 0.0108244
0.02595 0.011235824 0.0108974
0.025800001 0.011235824 0.0109193
0.02565 0.011235824 0.0110142
0.0255 0.011235824 0.0109193
0.025350001 0.011235824 0.0107806
0.0252 0.011235824 0.0107295
0.025049999 0.011235824 0.0107295
0.024900001 0.011235824 0.0110945
0.02475 0.011235824 0.0118245
0.024599999 0.011235824 0.012591
0.02445 0.011235824 0.0133502
0.0243 0.011235824 0.0136641
0.024150001 0.011235824 0.0109485
0.024 0.011235824 0.0107003
0.02385 0.011235824 0.0107587
0.023700001 0.011235824 0.0107806
0.02355 0.011235824 0.0107733
0.023399999 0.011235824 0.0108025
0.023250001 0.011235824 0.0108317
0.0231 0.011235824 0.0108682
0.022949999 0.011235824 0.010839
0.0228 0.011235824 0.0108098
0.02265 0.011235824 0.0107003
0.022500001 0.011235824 0.0107003
0.02235 0.011235824 0.0108025
0.0222 0.011235824 0.0108682
0.022050001 0.011235824 0.0108609
0.0219 0.011235824 0.0108171
0.021749999 0.011235824 0.0108171
0.021600001 0.011235824 0.0108025
0.02145 0.011235824 0.0107295
0.021299999 0.011235824 0.0108536
0.02115 0.011235824 0.0108901
0.021 0.011235824 0.0108244
0.020850001 0.011235824 0.0108098
0.0207 0.011235824 0.0107806
0.02055 0.011235824 0.0107295
0.020400001 0.011235824 0.0107222
0.02025 0.011235824 0.0107514
0.020099999 0.011235824 0.0107441
0.019950001 0.011235824 0.0108025
0.0198 0.011235824 0.0108171
0.019649999 0.011235824 0.0108098
0.0195 0.011235824 0.0107587
0.01935 0.011235824 0.0107295
0.019200001 0.011235824 0.0107806
0.01905 0.011235824 0.0108098
0.0189 0.011235824 0.0107514
0.018750001 0.011235824 0.0107952
0.0186 0.011235824 0.0108828
0.018449999 0.011235824 0.0108828
0.018300001 0.011235824 0.0108317
0.01815 0.011235824 0.0108171
0.017999999 0.011235824 0.0108609
0.01785 0.011235824 0.0108828
0.0177 0.011235824 0.0108171
0.017550001 0.011235824 0.0107806
0.0174 0.011235824 0.0108682
0.01725 0.011235824 0.0108171
0.017100001 0.011235824 0.0108171
0.01695 0.011235824 0.0108317
0.016799999 0.011235824 0.0107879
0.016650001 0.011235824 0.0107952
0.0165 0.011235824 0.0108098
0.016349999 0.011235824 0.0108244
0.0162 0.011235824 0.0108755
0.01605 0.011235824 0.0109339
0.015900001 0.011235824 0.0108901
0.01575 0.011235824 0.0108682
0.0156 0.011235824 0.0108536
0.01545 0.011235824 0.0108901
0.0153 0.011235824 0.0109047
0.01515 0.011235824 0.0108901
0.015 0.011235824 0.0108755
0.01485 0.011235824 0.0108609
0.0147 0.011235824 0.0108463
0.01455 0.011235824 0.0108682
0.0144 0.011235824 0.0108609
0.01425 0.011235824 0.0108609
0.0141 0.011235824 0.0107733
0.01395 0.011235824 0.0107952
0.0138 0.011235824 0.0108244
0.01365 0.011235824 0.0108536
0.0135 0.011235824 0.0108682
0.01335 0.011235824 0.0108536
0.0132 0.011235824 0.010839
0.01305 0.011235824 0.0108463
0.0129 0.011235824 0.0108682
0.01275 0.011235824 0.0108025
0.0126 0.011235824 0.0107514
0.01245 0.011235824 0.0107441
0.0123 0.011235824 0.0107733
0.01215 0.011235824 0.0108098
0.012 0.011235824 0.0108609
0.01185 0.011235824 0.0108901
0.0117 0.011235824 0.0108244
0.01155 0.011235824 0.0107733
0.0114 0.011235824 0.0107952
0.01125 0.011235824 0.0108828
0.0111 0.011235824 0.0108974
0.01095 0.011235824 0.0108755
0.0108 0.011235824 0.0109193
0.01065 0.011235824 0.0110945
0.0105 0.011235824 0.0112989
0.01035 0.011235824 0.0113354
0.0102 0.011235824 0.0113208
0.01005 0.011235824 0.0112186
0.0098999999 0.011235824 0.0110507
0.0097500002 0.011235824 0.0109485
0.0096000005 0.011235824 0.0109266
0.0094499998 0.011235824 0.0108682
0.0093 0.011235824 0.0107441
0.0091500003 0.011235824 0.0106784
0.0089999996 0.011235824 0.0107149
0.0088499999 0.011235824 0.0107514
0.0087000001 0.011235824 0.0107806
0.0085500004 0.011235824 0.0108317
0.0083999997 0.011235824 0.0108098
0.00825 0.011235824 0.0108682
0.0081000002 0.011235824 0.0108901
0.0079500005 0.011235824 0.0108974
0.0077999998 0.011235824 0.0108828
0.00765 0.011235824 0.0108244
0.0074999998 0.011235824 0.0108025
0.0073500001 0.011235824 0.0107952
0.0071999999 0.011235824 0.0108463
0.0070500001 0.011235824 0.0108828
0.0068999999 0.011235824 0.0109193
0.0067500002 0.011235824 0.0108901
0.0066 0.011235824 0.010912
0.0064500002 0.011235824 0.0109558
0.0063 0.011235824 0.0109412
0.0061499998 0.011235824 0.010912
0.0060000001 0.011235824 0.0108682
0.0058499998 0.011235824 0.010912
0.0057000001 0.011235824 0.0109777
0.0055499999 0.011235824 0.0109485
0.0054000001 0.011235824 0.010912
0.0052499999 0.011235824 0.0108682
0.0051000002 0.011235824 0.0108098
0.00495 0.011235824 0.010766
0.0048000002 0.011235824 0.0107806
0.00465 0.011235824 0.0108463
0.0044999998 0.011235824 0.0108609
0.0043500001 0.011235824 0.010839
0.0041999999 0.011235824 0.0108682
0.0040500001 0.011235824 0.0109047
0.0038999999 0.011235824 0.0109339
0.0037499999 0.011235824 0.0109558
0.0035999999 0.011235824 0.010912
0.00345 0.011235824 0.010839
0.0033 0.011235824 0.0109193
0.00315 0.011235824 0.0109777
0.003 0.011235824 0.0109631
0.00285 0.011235824 0.010912
0.0027000001 0.011235824 0.0109339
0.0025500001 0.011235824 0.0109777
0.0024000001 0.011235824 0.0109996
0.0022499999 0.011235824 0.0109266
0.0020999999 0.011235824 0.0108098
0.0019499999 0.011235824 0.0107952
0.0018 0.011235824 0.0108317
0.00165 0.011235824 0.0107879
0.0015 0.011235824 0.0108171
0.00135 0.011235824 0.0108536
0.0012000001 0.011235824 0.0109558
0.00105 0.011235824 0.0110288
0.00089999998 0.011235824 0.0110142
0.00075000001 0.011235824 0.0109777
0.00060000003 0.011235824 0.0108974
0.00044999999 0.011235824 0.0109339
0.00030000001 0.011235824 0.0109266
0.00015000001 0.011235824 0.0109485
7.1054277e-18 0.011235824 0.0109412
-0.00015000001 0.011235824 0.0109266
-0.00030000001 0.011235824 0.0109047
-0.00044999999 0.011235824 0.0109266
-0.00060000003 0.011235824 0.0109777
-0.00075000001 0.011235824 0.010912
-0.00089999998 0.011235824 0.0108901
-0.00105 0.011235824 0.0109777
-0.0012000001 0.011235824 0.0109777
-0.00135 0.011235824 0.0110288
-0.0015 0.011235824 0.0110142
-0.00165 0.011235824 0.0109704
-0.0018 0.011235824 0.0109485
-0.0019499999 0.011235824 0.0109485
-0.0020999999 0.011235824 0.0109412
-0.0022499999 0.011235824 0.0108755
-0.0024000001 0.011235824 0.0107806
-0.0025500001 0.011235824 0.0108536
-0.0027000001 0.011235824 0.0108317
-0.00285 0.011235824 0.0108244
-0.003 0.011235824 0.0108171
-0.00315 0.011235824 0.010839
-0.0033 0.011235824 0.0108682
-0.00345 0.011235824 0.0108609
-0.0035999999 0.011235824 0.010839
-0.0037499999 0.011235824 0.0108098
-0.0038999999 0.011235824 0.0108317
-0.0040500001 0.011235824 0.0108901
-0.0041999999 0.011235824 0.0108609
-0.0043500001 0.011235824 0.0108536
-0.0044999998 0.011235824 0.0108755
-0.00465 0.011235824 0.0109266
-0.0048000002 0.011235824 0.0109923
-0.00495 0.011235824 0.0109704
-0.0051000002 0.011235824 0.0109047
-0.0052499999 0.011235824 0.0108682
-0.0054000001 0.011235824 0.0108317
-0.0055499999 0.011235824 0.0109266
-0.0057000001 0.011235824 0.0114522
-0.0058499998 0.011235824 0.0120435
-0.0060000001 0.011235824 0.0124085
-0.0061499998 0.011235824 0.012445
-0.0063 0.011235824 0.012445
-0.0064500002 0.011235824 0.0124669
-0.0066 0.011235824 0.0124304
-0.0067500002 0.011235824 0.0124158
-0.0068999999 0.011235824 0.012445
-0.0070500001 0.011235824 0.0124815
-0.0071999999 0.011235824 0.0124961
-0.0073500001 0.011235824 0.0124815
-0.0074999998 0.011235824 0.0124669
-0.00765 0.011235824 0.012445
-0.0077999998 0.011235824 0.0124742
-0.0079500005 0.011235824 0.0124742
-0.0081000002 0.011235824 0.0125107
-0.00825 0.011235824 0.0125691
-0.0083999997 0.011235824 0.0125837
-0.0085500004 0.011235824 0.0124815
-0.0087000001 0.011235824 0.0121749
-0.0088499999 0.011235824 0.0115982
-0.0089999996 0.011235824 0.0110361
-0.0091500003 0.011235824 0.0109412
-0.0093 0.011235824 0.0108901
-0.0094499998 0.011235824 0.0109412
-0.0096000005 0.011235824 0.0108974
-0.0097500002 0.011235824 0.0108463
-0.0098999999 0.011235824 0.0108317
-0.01005 0.011235824 0.010766
-0.0102 0.011235824 0.0107003
-0.01035 0.011235824 0.0107222
-0.0105 0.011235824 0.0107733
-0.01065 0.011235824 0.0108755
-0.0108 0.011235824 0.0109412
-0.01095 0.011235824 0.010912
-0.0111 0.011235824 0.0108974
-0.01125 0.011235824 0.0108974
-0.0114 0.011235824 0.0108682
-0.01155 0.011235824 0.0108244
-0.0117 0.011235824 0.0108171
-0.01185 0.011235824 0.0108463
-0.012 0.011235824 0.0107222
-0.01215 0.011235824 0.0106784
-0.0123 0.011235824 0.0106419
-0.01245 0.011235824 0.0106638
-0.0126 0.011235824 0.010693
-0.01275 0.011235824 0.0107368
-0.0129 0.011235824 0.0107733
-0.01305 0.011235824 0.010839
-0.0132 0.011235824 0.0109193
-0.01335 0.011235824 0.0108536
-0.0135 0.011235824 0.0108317
-0.01365 0.011235824 0.0108317
-0.0138 0.011235824 0.0109412
-0.01395 0.011235824 0.0109266
-0.0141 0.011235824 0.0108609
-0.01425 0.011235824 0.0107441
-0.0144 0.011235824 0.0107076
-0.01455 0.011235824 0.0107806
-0.0147 0.011235824 0.0108098
-0.01485 0.011235824 0.010839
-0.015 0.011235824 0.0108536
-0.01515 0.011235824 0.0108682
-0.0153 0.011235824 0.0109412
-0.01545 0.011235824 0.0108682
-0.0156 0.011235824 0.0108317
-0.01575 0.011235824 0.0108536
-0.015900001 0.011235824 0.0108901
-0.01605 0.011235824 0.0109266
-0.0162 0.011235824 0.0108901
-0.016349999 0.011235824 0.0108974
-0.0165 0.011235824 0.0109193
-0.016650001 0.011235824 0.0108901
-0.016799999 0.011235824 0.0108828
-0.01695 0.011235824 0.0108828
-0.017100001 0.011235824 0.0108755
-0.01725 0.011235824 0.0108974
-0.0174 0.011235824 0.0109339
-0.017550001 0.011235824 0.0109193
-0.0177 0.011235824 0.0109412
-0.01785 0.011235824 0.0109996
-0.017999999 0.011235824 0.0108901
-0.01815 0.011235824 0.0109412
-0.018300001 0.011235824 0.0109412
-0.018449999 0.011235824 0.0109339
-0.0186 0.011235824 0.0109266
-0.018750001 0.011235824 0.0108901
-0.0189 0.011235824 0.0108901
-0.01905 0.011235824 0.0109485
-0.019200001 0.011235824 0.0110872
-0.01935 0.011235824 0.0110872
-0.0195 0.011235824 0.0111529
-0.019649999 0.011235824 0.0110726
-0.0198 0.011235824 0.0110215
-0.019950001 0.011235824 0.0110653
-0.020099999 0.011235824 0.0111164
-0.02025 0.011235824 0.011131
-0.020400001 0.011235824 0.0111091
-0.02055 0.011235824 0.0111164
-0.0207 0.011235824 0.0110507
-0.020850001 0.011235824 0.0110434
-0.021 0.011235824 0.0110507
-0.02115 0.011235824 0.0110069
-0.021299999 0.011235824 0.0109485
-0.02145 0.011235824 0.0109485
-0.021600001 0.011235824 0.0109923
-0.021749999 0.011235824 0.0110215
-0.0219 0.011235824 0.0109558
-0.022050001 0.011235824 0.0110069
-0.0222 0.011235824 0.0110142
-0.02235 0.011235824 0.0109923
-0.022500001 0.011235824 0.010985
-0.02265 0.011235824 0.0109631
-0.0228 0.011235824 0.0109485
-0.022949999 0.011235824 0.0109923
-0.0231 0.011235824 0.0109704
-0.023250001 0.011235824 0.0110215
-0.023399999 0.011235824 0.0110215
-0.02355 0.011235824 0.0110799
-0.023700001 0.011235824 0.0118464
-0.02385 0.011235824 0.0123866
-0.024 0.011235824 0.0125472
-0.024150001 0.011235824 0.0124815
-0.0243 0.011235824 0.0121603
-0.02445 0.011235824 0.0116493
-0.024599999 0.011235824 0.0111018
-0.02475 0.011235824 0.011131
-0.024900001 0.011235824 0.0111164
-0.025049999 0.011235824 0.0109558
-0.0252 0.011235824 0.0109485
-0.025350001 0.011235824 0.0109412
-0.0255 0.011235824 0.0109266
-0.02565 0.011235824 0.0110288
-0.025800001 0.011235824 0.0111748
-0.02595 0.011235824 0.0111529
-0.0261 0.011235824 0.0111529
-0.026249999 0.011235824 0.0117223
-0.0264 0.011235824 0.0119851
-0.026550001 0.011235824 0.0128173
-0.026699999 0.011235824 0.0130801
-0.02685 0.011235824 0.012518
-0.027000001 0.011235824 0.0116712
-0.02715 0.011235824 0.011131
-0.0273 0.011235824 0.0110872
-0.027450001 0.011235824 0.0109777
-0.0276 0.011235824 0.0109339
-0.02775 0.011235824 0.0108755
-0.027899999 0.011235824 0.0108828
-0.02805 0.011235824 0.0109485
-0.028200001 0.011235824 0.0110142
-0.028349999 0.011235824 0.0110361
-0.0285 0.011235824 0.0110288
-0.028650001 0.011235824 0.0110726
-0.0288 0.011235824 0.0111091
-0.02895 0.011235824 0.0111383
-0.029100001 0.011235824 0.0111529
-0.02925 0.011235824 0.0110872
-0.0294 0.011235824 0.0110945
-0.029549999 0.011235824 0.0111456
-0.0297 0.011235824 0.0111748
-0.029850001 0.011235824 0.0111602
-0.029999999 0.011235824 0.0111164
-0.03015 0.011235824 0.0110872
-0.030300001 0.011235824 0.0110361
-0.030449999 0.011235824 0.0110726
-0.0306 0.011235824 0.0110799
-0.030750001 0.011235824 0.0110945
-0.0309 0.011235824 0.0111456
-0.03105 0.011235824 0.0111237
-0.031199999 0.011235824 0.0110288
-0.031350002 0.011235824 0.0109339
-0.031500001 0.011235824 0.0109047
-0.031649999 0.011235824 0.010985
-0.031800002 0.011235824 0.0109558
-0.031950001 0.011235824 0.010985
-0.032099999 0.011235824 0.0109777
-0.032249998 0.011235824 0.0109704
-0.032400001 0.011235824 0.0110069
-0.03255 0.011235824 0.0109996
-0.032699998 0.011235824 -inf
-0.032850001 0.011235824 -inf
-0.033 0.011235824 -inf
-0.033149999 0.011235824 -inf
-0.033300001 0.011235824 -inf
-0.03345 0.011235824 -inf
0.03345 0.012172165 -inf
0.033300001 0.012172165 -inf
0.033149999 0.012172165 -inf
0.033 0.012172165 0.0108609
0.032850001 0.012172165 0.0108025
0.032699998 0.012172165 0.0108609
0.03255 0.012172165 0.010839
0.032400001 0.012172165 0.0108244
0.032249998 0.012172165 0.0108682
0.032099999 0.012172165 0.0109047
0.031950001 0.012172165 0.0108755
0.031800002 0.012172165 0.0108317
0.031649999 0.012172165 0.0108098
0.031500001 0.012172165 0.010839
0.031350002 0.012172165 0.0108463
0.031199999 0.012172165 0.0108536
0.03105 0.012172165 0.0108463
0.0309 0.012172165 0.010839
0.030750001 0.012172165 0.0108098
0.0306 0.012172165 0.0107733
0.030449999 0.012172165 0.0107879
0.030300001 0.012172165 0.0108244
0.03015 0.012172165 0.0108609
0.029999999 0.012172165 0.0107952
0.029850001 0.012172165 0.0108244
0.0297 0.012172165 0.0108317
0.029549999 0.012172165 0.0107806
0.0294 0.012172165 0.0107806
0.02925 0.012172165 0.0108244
0.029100001 0.012172165 0.0108171
0.02895 0.012172165 0.0107514
0.0288 0.012172165 0.0106784
0.028650001 0.012172165 0.0107441
0.0285 0.012172165 0.0108098
0.028349999 0.012172165 0.0108463
0.028200001 0.012172165 0.0108755
0.02805 0.012172165 0.0108609
0.027899999 0.012172165 0.0108171
0.02775 0.012172165 0.0107806
0.0276 0.012172165 0.0111529
0.027450001 0.012172165 0.0123136
0.0273 0.012172165 0.0134743
0.02715 0.012172165 0.0145839
0.027000001 0.012172165 0.0152774
0.02685 0.012172165 0.0151971
0.026699999 0.012172165 0.0151168
0.026550001 0.012172165 0.0116785
0.0264 0.012172165 0.0110945
0.026249999 0.012172165 0.0109266
0.0261 0.012172165 0.0108463
0.02595 0.012172165 0.0107879
0.025800001 0.012172165 0.0107514
0.02565 0.012172165 0.0107149
0.0255 0.012172165 0.0107514
0.025350001 0.012172165 0.010766
0.0252 0.012172165 0.010839
0.025049999 0.012172165 0.0114814
0.024900001 0.012172165 0.0126713
0.02475 0.012172165 0.0138028
0.024599999 0.012172165 0.0149927
0.02445 0.012172165 0.0149781
0.0243 0.012172165 0.0145182
0.024150001 0.012172165 0.0148832
0.024 0.012172165 0.0118683
0.02385 0.012172165 0.0111164
0.023700001 0.012172165 0.0109485
0.02355 0.012172165 0.0108755
0.023399999 0.012172165 0.0108171
0.023250001 0.012172165 0.0108317
0.0231 0.012172165 0.010839
0.022949999 0.012172165 0.0108828
0.0228 0.012172165 0.0108755
0.02265 0.012172165 0.0108463
0.022500001 0.012172165 0.0108901
0.02235 0.012172165 0.0109193
0.0222 0.012172165 0.0108609
0.022050001 0.012172165 0.0108098
0.0219 0.012172165 0.0107952
0.021749999 0.012172165 0.0108025
0.021600001 0.012172165 0.0108901
0.02145 0.012172165 0.0109266
0.021299999 0.012172165 0.0108974
0.02115 0.012172165 0.0108682
0.021 0.012172165 0.0108098
0.020850001 0.012172165 0.0107587
0.0207 0.012172165 0.0107587
0.02055 0.012172165 0.0107879
0.020400001 0.012172165 0.0108098
0.02025 0.012172165 0.0108317
0.020099999 0.012172165 0.010766
0.019950001 0.012172165 0.0106857
0.0198 0.012172165 0.0107952
0.019649999 0.012172165 0.0108025
0.0195 0.012172165 0.0107733
0.01935 0.012172165 0.0107952
0.019200001 0.012172165 0.0108171
