# .PCD v0.7 - Point Cloud Data file format
VERSION 0.7
FIELDS x y z
SIZE 4 4 4
TYPE F F F
COUNT 1 1 1
WIDTH 1358
HEIGHT 1
VIEWPOINT 0 0 0 1 0 0 0
POINTS 1358
DATA ascii
-0.022949999 -0.039794929 0.0098534999
-0.0231 -0.039794929 0.0098826997
-0.023250001 -0.039794929 0.0098826997
-0.023399999 -0.039794929 0.0098754
-0.02355 -0.039794929 0.0098754
-0.023700001 -0.039794929 0.0098973
-0.02385 -0.039794929 0.0099045997
-0.024 -0.039794929 0.0098973
-0.024150001 -0.039794929 0.0099192001
-0.0243 -0.039794929 0.0099338004
-0.02445 -0.039794929 0.0099119004
-0.024599999 -0.039794929 0.0098681003
-0.02475 -0.039794929 0.0098534999
-0.024900001 -0.039794929 0.0098607996
-0.025049999 -0.039794929 0.0098900003
-0.0252 -0.039794929 0.0099045997
-0.025350001 -0.039794929 0.0098681003
-0.0255 -0.039794929 0.0098462002
-0.02565 -0.039794929 0.0098754
-0.025800001 -0.039794929 0.0099192001
-0.02595 -0.039794929 0.0099338004
-0.0261 -0.039794929 0.0098900003
-0.026249999 -0.039794929 0.0097732004
-0.0264 -0.039794929 0.0096709998
-0.026550001 -0.039794929 0.0096709998
-0.026699999 -0.039794929 0.0097367
-0.02685 -0.039794929 0.0097951004
-0.027000001 -0.039794929 -inf
-0.02715 -0.039794929 -inf
-0.0273 -0.039794929 -inf
-0.027450001 -0.039794929 -inf
-0.0276 -0.039794929 -inf
-0.02775 -0.039794929 -inf
-0.027899999 -0.039794929 -inf
-0.02805 -0.039794929 -inf
-0.028200001 -0.039794929 -inf
-0.028349999 -0.039794929 -inf
-0.0285 -0.039794929 -inf
-0.028650001 -0.039794929 -inf
-0.0288 -0.039794929 -inf
-0.02895 -0.039794929 -inf
-0.029100001 -0.039794929 -inf
-0.02925 -0.039794929 0.009598
-0.0294 -0.039794929 0.0097586
-0.029549999 -0.039794929 0.0099192001
-0.0297 -0.039794929 0.0099411001
-0.029850001 -0.039794929 0.0099702999
-0.029999999 -0.039794929 0.0099338004
-0.03015 -0.039794929 0.0099338004
-0.030300001 -0.039794929 0.0099338004
-0.030449999 -0.039794929 0.0099411001
-0.0306 -0.039794929 0.0099556996
-0.030750001 -0.039794929 0.0099775996
-0.0309 -0.039794929 0.0099775996
-0.03105 -0.039794929 0.0099556996
-0.031199999 -0.039794929 0.0099411001
-0.031350002 -0.039794929 0.0099045997
-0.031500001 -0.039794929 0.0099483998
-0.031649999 -0.039794929 0.0098900003
-0.031800002 -0.039794929 0.0098607996
-0.031950001 -0.039794929 0.0098900003
-0.032099999 -0.039794929 0.0099264998
-0.032249998 -0.039794929 0.0099556996
-0.032400001 -0.039794929 0.0099849002
-0.03255 -0.039794929 0.0099556996
-0.032699998 -0.039794929 0.0098900003
-0.032850001 -0.039794929 0.0099702999
-0.033 -0.039794929 0.0099338004
-0.033149999 -0.039794929 0.0099119004
-0.033300001 -0.039794929 0.0099264998
-0.03345 -0.039794929 0.0099338004
-0.033599999 -0.039794929 0.0099192001
-0.033750001 -0.039794929 0.0099264998
-0.0339 -0.039794929 0.0099775996
-0.034049999 -0.039794929 0.0099775996
-0.034200002 -0.039794929 0.0098900003
-0.03435 -0.039794929 0.0099775996
-0.034499999 -0.039794929 -inf
0.034499999 -0.038858589 -inf
0.03435 -0.038858589 -inf
0.034200002 -0.038858589 -inf
0.034049999 -0.038858589 -inf
0.0339 -0.038858589 -inf
0.033750001 -0.038858589 -inf
0.033599999 -0.038858589 -inf
0.03345 -0.038858589 -inf
0.033300001 -0.038858589 -inf
0.033149999 -0.038858589 -inf
0.033 -0.038858589 -inf
0.032850001 -0.038858589 -inf
0.032699998 -0.038858589 -inf
0.03255 -0.038858589 -inf
0.032400001 -0.038858589 -inf
0.032249998 -0.038858589 -inf
0.032099999 -0.038858589 -inf
0.031950001 -0.038858589 -inf
0.031800002 -0.038858589 -inf
0.031649999 -0.038858589 -inf
0.031500001 -0.038858589 -inf
0.031350002 -0.038858589 -inf
0.031199999 -0.038858589 0.0096782995
0.03105 -0.038858589 0.0096418001
0.0309 -0.038858589 0.0096345004
0.030750001 -0.038858589 0.0096490998
0.0306 -0.038858589 0.0096637001
0.030449999 -0.038858589 0.0096490998
0.030300001 -0.038858589 0.0096345004
0.03015 -0.038858589 0.0096199
0.029999999 -0.038858589 0.0096490998
0.029850001 -0.038858589 0.0096126003
0.0297 -0.038858589 0.0096199
0.029549999 -0.038858589 0.0096418001
0.0294 -0.038858589 0.0096418001
0.02925 -0.038858589 0.009598
0.029100001 -0.038858589 0.0095396005
0.02895 -0.038858589 0.0095907003
0.0288 -0.038858589 0.009598
0.028650001 -0.038858589 0.0095250001
0.0285 -0.038858589 0.0096126003
0.028349999 -0.038858589 0.0096418001
0.028200001 -0.038858589 0.0096928999
0.02805 -0.038858589 0.0097075002
0.027899999 -0.038858589 0.0096564004
0.02775 -0.038858589 0.0096490998
0.0276 -0.038858589 0.0097001996
0.027450001 -0.038858589 0.0096856002
0.0273 -0.038858589 0.0096418001
0.02715 -0.038858589 -inf
0.027000001 -0.038858589 -inf
0.02685 -0.038858589 -inf
0.026699999 -0.038858589 -inf
0.026550001 -0.038858589 -inf
0.0264 -0.038858589 -inf
0.026249999 -0.038858589 -inf
0.0261 -0.038858589 -inf
0.02595 -0.038858589 -inf
0.025800001 -0.038858589 -inf
0.02565 -0.038858589 -inf
0.0255 -0.038858589 -inf
0.025350001 -0.038858589 -inf
0.0252 -0.038858589 -inf
0.025049999 -0.038858589 -inf
0.024900001 -0.038858589 -inf
0.02475 -0.038858589 -inf
0.024599999 -0.038858589 -inf
0.02445 -0.038858589 0.0097075002
0.0243 -0.038858589 0.0096709998
0.024150001 -0.038858589 0.0096928999
0.024 -0.038858589 0.0097294003
0.02385 -0.038858589 0.0097294003
0.023700001 -0.038858589 0.0096928999
0.02355 -0.038858589 0.0096564004
0.023399999 -0.038858589 0.0097001996
0.023250001 -0.038858589 0.0096782995
0.0231 -0.038858589 0.0096271997
0.022949999 -0.038858589 0.0096199
0.0228 -0.038858589 0.0096345004
0.02265 -0.038858589 0.0096490998
0.022500001 -0.038858589 0.0096856002
0.02235 -0.038858589 0.0097294003
0.0222 -0.038858589 0.0097367
0.022050001 -0.038858589 0.0097439997
0.0219 -0.038858589 0.0097220996
0.021749999 -0.038858589 0.0096199
0.021600001 -0.038858589 0.0095907003
0.02145 -0.038858589 0.0096782995
0.021299999 -0.038858589 0.0097220996
0.02115 -0.038858589 0.0097220996
0.021 -0.038858589 0.0097294003
0.020850001 -0.038858589 0.0097367
0.0207 -0.038858589 0.0097075002
0.02055 -0.038858589 0.0096709998
0.020400001 -0.038858589 0.0097658997
0.02025 -0.038858589 0.0098315999
0.020099999 -0.038858589 0.0098243002
0.019950001 -0.038858589 0.0098096998
0.0198 -0.038858589 0.0098169995
0.019649999 -0.038858589 0.0098388996
0.0195 -0.038858589 0.0098169995
0.01935 -0.038858589 0.0097951004
0.019200001 -0.038858589 0.0098388996
0.01905 -0.038858589 0.0098681003
0.0189 -0.038858589 0.0098607996
0.018750001 -0.038858589 0.0098096998
0.0186 -0.038858589 0.0097877998
0.018449999 -0.038858589 0.0097877998
0.018300001 -0.038858589 0.0097951004
0.01815 -0.038858589 0.0097877998
0.017999999 -0.038858589 0.0097658997
0.01785 -0.038858589 0.0097220996
0.0177 -0.038858589 0.0098315999
0.017550001 -0.038858589 0.0098096998
0.0174 -0.038858589 0.0097220996
0.01725 -0.038858589 0.0096928999
0.017100001 -0.038858589 0.0097367
0.01695 -0.038858589 0.0098096998
0.016799999 -0.038858589 0.0098388996
0.016650001 -0.038858589 0.0097951004
0.0165 -0.038858589 0.0098096998
0.016349999 -0.038858589 0.0098243002
0.0162 -0.038858589 0.0097732004
0.01605 -0.038858589 0.0097877998
0.015900001 -0.038858589 0.0098826997
0.01575 -0.038858589 0.0099338004
0.0156 -0.038858589 0.0099045997
0.01545 -0.038858589 0.0098826997
0.0153 -0.038858589 0.0098681003
0.01515 -0.038858589 0.0097951004
0.015 -0.038858589 0.0097877998
0.01485 -0.038858589 0.0097732004
0.0147 -0.038858589 0.0097658997
0.01455 -0.038858589 0.0097658997
0.0144 -0.038858589 0.0097805001
0.01425 -0.038858589 0.0097658997
0.0141 -0.038858589 0.0097586
0.01395 -0.038858589 0.0097367
0.0138 -0.038858589 0.0097658997
0.01365 -0.038858589 0.0098388996
0.0135 -0.038858589 0.0098388996
0.01335 -0.038858589 0.0098169995
0.0132 -0.038858589 0.0098024001
0.01305 -0.038858589 0.0097877998
0.0129 -0.038858589 0.0097367
0.01275 -0.038858589 0.0097001996
0.0126 -0.038858589 0.0097220996
0.01245 -0.038858589 0.0098826997
0.0123 -0.038858589 0.0098900003
0.01215 -0.038858589 0.0098388996
0.012 -0.038858589 0.0097439997
0.01185 -0.038858589 0.0096709998
0.0117 -0.038858589 0.0097294003
0.01155 -0.038858589 0.0098681003
0.0114 -0.038858589 0.0099775996
0.01125 -0.038858589 0.0099119004
0.0111 -0.038858589 0.0098900003
0.01095 -0.038858589 0.0098681003
0.0108 -0.038858589 0.0098607996
0.01065 -0.038858589 0.0098681003
0.0105 -0.038858589 0.0098534999
0.01035 -0.038858589 0.0098388996
0.0102 -0.038858589 0.0098096998
0.01005 -0.038858589 0.0098169995
0.0098999999 -0.038858589 0.0098826997
0.0097500002 -0.038858589 0.0098973
0.0096000005 -0.038858589 0.0098681003
0.0094499998 -0.038858589 0.0098388996
0.0093 -0.038858589 0.0098826997
0.0091500003 -0.038858589 0.0099045997
0.0089999996 -0.038858589 0.0098826997
0.0088499999 -0.038858589 0.0098315999
0.0087000001 -0.038858589 0.0097951004
0.0085500004 -0.038858589 0.0097658997
0.0083999997 -0.038858589 0.0097220996
0.00825 -0.038858589 0.0096637001
0.0081000002 -0.038858589 0.0097001996
0.0079500005 -0.038858589 0.0097075002
0.0077999998 -0.038858589 0.0097586
0.00765 -0.038858589 0.0098315999
0.0074999998 -0.038858589 0.0098826997
0.0073500001 -0.038858589 0.0098826997
0.0071999999 -0.038858589 0.0098462002
0.0070500001 -0.038858589 0.0097732004
0.0068999999 -0.038858589 0.0098243002
0.0067500002 -0.038858589 0.0098973
0.0066 -0.038858589 0.0099775996
0.0064500002 -0.038858589 0.0099921999
0.0063 -0.038858589 0.0099411001
0.0061499998 -0.038858589 0.0098681003
0.0060000001 -0.038858589 0.0098462002
0.0058499998 -0.038858589 0.0099045997
0.0057000001 -0.038858589 0.0098534999
0.0055499999 -0.038858589 0.0098462002
0.0054000001 -0.038858589 0.0098754
0.0052499999 -0.038858589 0.0098681003
0.0051000002 -0.038858589 0.0098462002
0.00495 -0.038858589 0.0098388996
0.0048000002 -0.038858589 0.0098243002
0.00465 -0.038858589 0.0098024001
0.0044999998 -0.038858589 0.0098243002
0.0043500001 -0.038858589 0.0098096998
0.0041999999 -0.038858589 0.0098534999
0.0040500001 -0.038858589 0.0098462002
0.0038999999 -0.038858589 0.0098315999
0.0037499999 -0.038858589 0.0098462002
0.0035999999 -0.038858589 0.0098462002
0.00345 -0.038858589 0.0098096998
0.0033 -0.038858589 0.0097877998
0.00315 -0.038858589 0.0097513003
0.003 -0.038858589 0.0098024001
0.00285 -0.038858589 0.0097367
0.0027000001 -0.038858589 0.0097294003
0.0025500001 -0.038858589 0.0097075002
0.0024000001 -0.038858589 0.0097439997
0.0022499999 -0.038858589 0.0097805001
0.0020999999 -0.038858589 0.0097805001
0.0019499999 -0.038858589 0.0097658997
0.0018 -0.038858589 0.0097732004
0.00165 -0.038858589 0.0098315999
0.0015 -0.038858589 0.0098388996
0.00135 -0.038858589 0.0097805001
0.0012000001 -0.038858589 0.0097658997
0.00105 -0.038858589 0.0097732004
0.00089999998 -0.038858589 0.0098169995
0.00075000001 -0.038858589 0.0098681003
0.00060000003 -0.038858589 0.0098462002
0.00044999999 -0.038858589 0.0098243002
0.00030000001 -0.038858589 0.0098096998
0.00015000001 -0.038858589 0.0097732004
-0 -0.038858589 0.0098024001
-0.00015000001 -0.038858589 0.0097805001
-0.00030000001 -0.038858589 0.0097658997
-0.00044999999 -0.038858589 0.0097586
-0.00060000003 -0.038858589 0.0097220996
-0.00075000001 -0.038858589 0.0097001996
-0.00089999998 -0.038858589 0.0097586
-0.00105 -0.038858589 0.0097439997
-0.0012000001 -0.038858589 0.0097951004
-0.00135 -0.038858589 0.0097732004
-0.0015 -0.038858589 0.0097951004
-0.00165 -0.038858589 0.0097658997
-0.0018 -0.038858589 0.0097220996
-0.0019499999 -0.038858589 0.0097294003
-0.0020999999 -0.038858589 0.0097877998
-0.0022499999 -0.038858589 0.0098024001
-0.0024000001 -0.038858589 0.0097805001
-0.0025500001 -0.038858589 0.0098096998
-0.0027000001 -0.038858589 0.0098024001
-0.00285 -0.038858589 0.0097220996
-0.003 -0.038858589 0.0097586
-0.00315 -0.038858589 0.0098024001
-0.0033 -0.038858589 0.0098243002
-0.00345 -0.038858589 0.0098024001
-0.0035999999 -0.038858589 0.0097586
-0.0037499999 -0.038858589 0.0097658997
-0.0038999999 -0.038858589 0.0097367
-0.0040500001 -0.038858589 0.0098388996
-0.0041999999 -0.038858589 0.0098462002
-0.0043500001 -0.038858589 0.0097951004
-0.0044999998 -0.038858589 0.0097805001
-0.00465 -0.038858589 0.0097732004
-0.0048000002 -0.038858589 0.0097586
-0.00495 -0.038858589 0.0097805001
-0.0051000002 -0.038858589 0.0097951004
-0.0052499999 -0.038858589 0.0097586
-0.0054000001 -0.038858589 0.0097951004
-0.0055499999 -0.038858589 0.0097294003
-0.0057000001 -0.038858589 0.0098315999
-0.0058499998 -0.038858589 0.0098315999
-0.0060000001 -0.038858589 0.0098096998
-0.0061499998 -0.038858589 0.0098169995
-0.0063 -0.038858589 0.0098096998
-0.0064500002 -0.038858589 0.0098024001
-0.0066 -0.038858589 0.0097805001
-0.0067500002 -0.038858589 0.0098315999
-0.0068999999 -0.038858589 0.0098315999
-0.0070500001 -0.038858589 0.0098243002
-0.0071999999 -0.038858589 0.0098169995
-0.0073500001 -0.038858589 0.0097732004
-0.0074999998 -0.038858589 0.0097732004
-0.00765 -0.038858589 0.0098243002
-0.0077999998 -0.038858589 0.0098315999
-0.0079500005 -0.038858589 0.0098534999
-0.0081000002 -0.038858589 0.0098754
-0.00825 -0.038858589 0.0098096998
-0.0083999997 -0.038858589 0.0098388996
-0.0085500004 -0.038858589 0.0098681003
-0.0087000001 -0.038858589 0.0098681003
-0.0088499999 -0.038858589 0.0098462002
-0.0089999996 -0.038858589 0.0098534999
-0.0091500003 -0.038858589 0.0098607996
-0.0093 -0.038858589 0.0098243002
-0.0094499998 -0.038858589 0.0098388996
-0.0096000005 -0.038858589 0.0098388996
-0.0097500002 -0.038858589 0.0098754
-0.0098999999 -0.038858589 0.0098973
-0.01005 -0.038858589 0.0098973
-0.0102 -0.038858589 0.0098754
-0.01035 -0.038858589 0.0098462002
-0.0105 -0.038858589 0.0098169995
-0.01065 -0.038858589 0.0098388996
-0.0108 -0.038858589 0.0098024001
-0.01095 -0.038858589 0.0098754
-0.0111 -0.038858589 0.0098826997
-0.01125 -0.038858589 0.0098462002
-0.0114 -0.038858589 0.0098243002
-0.01155 -0.038858589 0.0098096998
-0.0117 -0.038858589 0.0098169995
-0.01185 -0.038858589 0.0098243002
-0.012 -0.038858589 0.0097877998
-0.01215 -0.038858589 0.0098024001
-0.0123 -0.038858589 0.0098315999
-0.01245 -0.038858589 0.0098754
-0.0126 -0.038858589 0.0099119004
-0.01275 -0.038858589 0.0099119004
-0.0129 -0.038858589 0.0098900003
-0.01305 -0.038858589 0.0098973
-0.0132 -0.038858589 0.0099264998
-0.01335 -0.038858589 0.0098315999
-0.0135 -0.038858589 0.0098462002
-0.01365 -0.038858589 0.0098681003
-0.0138 -0.038858589 0.0099119004
-0.01395 -0.038858589 0.0099119004
-0.0141 -0.038858589 0.0098607996
-0.01425 -0.038858589 0.0098169995
-0.0144 -0.038858589 0.0098243002
-0.01455 -0.038858589 0.0098826997
-0.0147 -0.038858589 0.0098826997
-0.01485 -0.038858589 0.0098534999
-0.015 -0.038858589 0.0098315999
-0.01515 -0.038858589 0.0099192001
-0.0153 -0.038858589 0.0099411001
-0.01545 -0.038858589 0.0098973
-0.0156 -0.038858589 0.0098754
-0.01575 -0.038858589 0.0098900003
-0.015900001 -0.038858589 0.0098607996
-0.01605 -0.038858589 0.0098024001
-0.0162 -0.038858589 0.0098826997
-0.016349999 -0.038858589 0.0099849002
-0.0165 -0.038858589 0.0098754
-0.016650001 -0.038858589 0.0098243002
-0.016799999 -0.038858589 0.0097951004
-0.01695 -0.038858589 0.0098388996
-0.017100001 -0.038858589 0.0099192001
-0.01725 -0.038858589 0.0099192001
-0.0174 -0.038858589 0.0098754
-0.017550001 -0.038858589 0.0099483998
-0.0177 -0.038858589 0.0099702999
-0.01785 -0.038858589 0.0099411001
-0.017999999 -0.038858589 0.0098826997
-0.01815 -0.038858589 0.0098973
-0.018300001 -0.038858589 0.0098826997
-0.018449999 -0.038858589 0.0098900003
-0.0186 -0.038858589 0.0099192001
-0.018750001 -0.038858589 0.0098315999
-0.0189 -0.038858589 0.0098900003
-0.01905 -0.038858589 0.0098900003
-0.019200001 -0.038858589 0.0099045997
-0.01935 -0.038858589 0.0098973
-0.0195 -0.038858589 0.0098607996
-0.019649999 -0.038858589 0.0098607996
-0.0198 -0.038858589 0.0098681003
-0.019950001 -0.038858589 0.0098607996
-0.020099999 -0.038858589 0.0098900003
-0.02025 -0.038858589 0.0098826997
-0.020400001 -0.038858589 0.0098243002
-0.02055 -0.038858589 0.0099192001
-0.0207 -0.038858589 0.0098315999
-0.020850001 -0.038858589 0.0098243002
-0.021 -0.038858589 0.0098973
-0.02115 -0.038858589 0.0099483998
-0.021299999 -0.038858589 0.0099192001
-0.02145 -0.038858589 0.0098462002
-0.021600001 -0.038858589 0.0098826997
-0.021749999 -0.038858589 0.0098681003
-0.0219 -0.038858589 0.0099119004
-0.022050001 -0.038858589 0.0099556996
-0.0222 -0.038858589 0.0099192001
-0.02235 -0.038858589 0.0099483998
-0.022500001 -0.038858589 0.0099702999
-0.02265 -0.038858589 0.0099192001
-0.0228 -0.038858589 0.0099119004
-0.022949999 -0.038858589 0.0098169995
-0.0231 -0.038858589 0.0098754
-0.023250001 -0.038858589 0.0098826997
-0.023399999 -0.038858589 0.0099556996
-0.02355 -0.038858589 0.0099630002
-0.023700001 -0.038858589 0.0099411001
-0.02385 -0.038858589 0.0099264998
-0.024 -0.038858589 0.0099338004
-0.024150001 -0.038858589 0.0098973
-0.0243 -0.038858589 0.0098243002
-0.02445 -0.038858589 0.0099483998
-0.024599999 -0.038858589 0.0099411001
-0.02475 -0.038858589 0.0099045997
-0.024900001 -0.038858589 0.0099483998
-0.025049999 -0.038858589 0.0099775996
-0.0252 -0.038858589 0.0099630002
-0.025350001 -0.038858589 0.0099775996
-0.0255 -0.038858589 0.0099921999
-0.02565 -0.038858589 0.0099921999
-0.025800001 -0.038858589 0.0099411001
-0.02595 -0.038858589 0.0099630002
-0.0261 -0.038858589 0.0099849002
-0.026249999 -0.038858589 0.0100068
-0.0264 -0.038858589 0.0100141
-0.026550001 -0.038858589 0.0100068
-0.026699999 -0.038858589 0.0099994997
-0.02685 -0.038858589 0.0099630002
-0.027000001 -0.038858589 0.0098973
-0.02715 -0.038858589 0.0098607996
-0.0273 -0.038858589 0.0098900003
-0.027450001 -0.038858589 0.0099045997
-0.0276 -0.038858589 0.0098826997
-0.02775 -0.038858589 0.0098973
-0.027899999 -0.038858589 0.0099775996
-0.02805 -0.038858589 0.0100433
-0.028200001 -0.038858589 0.0099921999
-0.028349999 -0.038858589 0.0098534999
-0.0285 -0.038858589 0.0098973
-0.028650001 -0.038858589 0.0099702999
-0.0288 -0.038858589 0.0100141
-0.02895 -0.038858589 0.0100287
-0.029100001 -0.038858589 0.0100068
-0.02925 -0.038858589 0.0099921999
-0.0294 -0.038858589 0.0099921999
-0.029549999 -0.038858589 0.0100068
-0.0297 -0.038858589 0.0100141
-0.029850001 -0.038858589 0.0099702999
-0.029999999 -0.038858589 0.0099775996
-0.03015 -0.038858589 0.0100652
-0.030300001 -0.038858589 0.010036
-0.030449999 -0.038858589 0.0100506
-0.0306 -0.038858589 0.0100506
-0.030750001 -0.038858589 0.0100141
-0.0309 -0.038858589 0.0100068
-0.03105 -0.038858589 0.0100214
-0.031199999 -0.038858589 0.0099775996
-0.031350002 -0.038858589 0.0100433
-0.031500001 -0.038858589 0.0099921999
-0.031649999 -0.038858589 0.0099483998
-0.031800002 -0.038858589 0.0099702999
-0.031950001 -0.038858589 0.0100287
-0.032099999 -0.038858589 0.010036
-0.032249998 -0.038858589 0.0100141
-0.032400001 -0.038858589 0.010036
-0.03255 -0.038858589 0.0100433
-0.032699998 -0.038858589 0.0099338004
-0.032850001 -0.038858589 0.0099338004
-0.033 -0.038858589 0.0099775996
-0.033149999 -0.038858589 0.0100141
-0.033300001 -0.038858589 0.0100214
-0.03345 -0.038858589 0.0100141
-0.033599999 -0.038858589 0.0099994997
-0.033750001 -0.038858589 0.010036
-0.0339 -0.038858589 0.0101017
-0.034049999 -0.038858589 0.0100433
-0.034200002 -0.038858589 0.0100579
-0.03435 -0.038858589 0.0100579
-0.034499999 -0.038858589 -inf
0.034499999 -0.037922248 -inf
0.03435 -0.037922248 -inf
0.034200002 -0.037922248 -inf
0.034049999 -0.037922248 -inf
0.0339 -0.037922248 -inf
0.033750001 -0.037922248 -inf
0.033599999 -0.037922248 -inf
0.03345 -0.037922248 -inf
0.033300001 -0.037922248 -inf
0.033149999 -0.037922248 -inf
0.033 -0.037922248 -inf
0.032850001 -0.037922248 -inf
0.032699998 -0.037922248 -inf
0.03255 -0.037922248 -inf
0.032400001 -0.037922248 -inf
0.032249998 -0.037922248 -inf
0.032099999 -0.037922248 -inf
0.031950001 -0.037922248 -inf
0.031800002 -0.037922248 -inf
0.031649999 -0.037922248 -inf
0.031500001 -0.037922248 -inf
0.031350002 -0.037922248 0.0098024001
0.031199999 -0.037922248 0.0097513003
0.03105 -0.037922248 0.0096856002
0.0309 -0.037922248 0.0096782995
0.030750001 -0.037922248 0.0097001996
0.0306 -0.037922248 0.0097220996
0.030449999 -0.037922248 0.0097075002
0.030300001 -0.037922248 0.0097439997
0.03015 -0.037922248 0.0096709998
0.029999999 -0.037922248 0.0097439997
0.029850001 -0.037922248 0.0096856002
0.0297 -0.037922248 0.0096856002
0.029549999 -0.037922248 0.0097220996
0.0294 -0.037922248 0.0097075002
0.02925 -0.037922248 0.0096856002
0.029100001 -0.037922248 0.0096782995
0.02895 -0.037922248 0.0096856002
0.0288 -0.037922248 0.0096856002
0.028650001 -0.037922248 0.0096928999
0.0285 -0.037922248 0.0096928999
0.028349999 -0.037922248 0.0097147999
0.028200001 -0.037922248 0.0097732004
0.02805 -0.037922248 0.0098169995
0.027899999 -0.037922248 0.0097877998
0.02775 -0.037922248 0.0097367
0.0276 -0.037922248 0.0097001996
0.027450001 -0.037922248 0.0096709998
0.0273 -0.037922248 0.0095469002
0.02715 -0.037922248 -inf
0.027000001 -0.037922248 -inf
0.02685 -0.037922248 -inf
0.026699999 -0.037922248 -inf
0.026550001 -0.037922248 -inf
0.0264 -0.037922248 -inf
0.026249999 -0.037922248 -inf
0.0261 -0.037922248 -inf
0.02595 -0.037922248 -inf
0.025800001 -0.037922248 -inf
0.02565 -0.037922248 -inf
0.0255 -0.037922248 -inf
0.025350001 -0.037922248 -inf
0.0252 -0.037922248 -inf
0.025049999 -0.037922248 -inf
0.024900001 -0.037922248 0.0098826997
0.02475 -0.037922248 0.0098169995
0.024599999 -0.037922248 0.0097805001
0.02445 -0.037922248 0.0097513003
0.0243 -0.037922248 0.0097367
0.024150001 -0.037922248 0.0097220996
0.024 -0.037922248 0.0097586
0.02385 -0.037922248 0.0098169995
0.023700001 -0.037922248 0.0098315999
0.02355 -0.037922248 0.0097805001
0.023399999 -0.037922248 0.0097294003
0.023250001 -0.037922248 0.0097147999
0.0231 -0.037922248 0.0097147999
0.022949999 -0.037922248 0.0097586
0.0228 -0.037922248 0.0097075002
0.02265 -0.037922248 0.0096637001
0.022500001 -0.037922248 0.0096928999
0.02235 -0.037922248 0.0097439997
0.0222 -0.037922248 0.0097805001
0.022050001 -0.037922248 0.0098096998
0.0219 -0.037922248 0.0097658997
0.021749999 -0.037922248 0.0096345004
0.021600001 -0.037922248 0.0096490998
0.02145 -0.037922248 0.0097075002
0.021299999 -0.037922248 0.0097220996
0.02115 -0.037922248 0.0097147999
0.021 -0.037922248 0.0097147999
0.020850001 -0.037922248 0.0097220996
0.0207 -0.037922248 0.0096856002
0.02055 -0.037922248 0.0097294003
0.020400001 -0.037922248 0.0097586
0.02025 -0.037922248 0.0098315999
0.020099999 -0.037922248 0.0098826997
0.019950001 -0.037922248 0.0098900003
0.0198 -0.037922248 0.0098826997
0.019649999 -0.037922248 0.0098754
0.0195 -0.037922248 0.0098388996
0.01935 -0.037922248 0.0098826997
0.019200001 -0.037922248 0.0098607996
0.01905 -0.037922248 0.0098462002
0.0189 -0.037922248 0.0098681003
0.018750001 -0.037922248 0.0098681003
0.0186 -0.037922248 0.0098607996
0.018449999 -0.037922248 0.0098534999
0.018300001 -0.037922248 0.0098315999
0.01815 -0.037922248 0.0097951004
0.017999999 -0.037922248 0.0097658997
0.01785 -0.037922248 0.0097367
0.0177 -0.037922248 0.0096637001
0.017550001 -0.037922248 0.0097294003
0.0174 -0.037922248 0.0097439997
0.01725 -0.037922248 0.0097439997
0.017100001 -0.037922248 0.0097805001
0.01695 -0.037922248 0.0098096998
0.016799999 -0.037922248 0.0097951004
0.016650001 -0.037922248 0.0097951004
0.0165 -0.037922248 0.0097877998
0.016349999 -0.037922248 0.0097147999
0.0162 -0.037922248 0.0097367
0.01605 -0.037922248 0.0098315999
0.015900001 -0.037922248 0.0098607996
0.01575 -0.037922248 0.0098534999
0.0156 -0.037922248 0.0098462002
0.01545 -0.037922248 0.0097951004
0.0153 -0.037922248 0.0097586
0.01515 -0.037922248 0.0097951004
0.015 -0.037922248 0.0097658997
0.01485 -0.037922248 0.0097294003
0.0147 -0.037922248 0.0097586
0.01455 -0.037922248 0.0098462002
0.0144 -0.037922248 0.0098826997
0.01425 -0.037922248 0.0098315999
0.0141 -0.037922248 0.0097805001
0.01395 -0.037922248 0.0098024001
0.0138 -0.037922248 0.0098243002
0.01365 -0.037922248 0.0097732004
0.0135 -0.037922248 0.0098024001
0.01335 -0.037922248 0.0098607996
0.0132 -0.037922248 0.0098826997
0.01305 -0.037922248 0.0098973
0.0129 -0.037922248 0.0098900003
0.01275 -0.037922248 0.0098462002
0.0126 -0.037922248 0.0098607996
0.01245 -0.037922248 0.0098169995
0.0123 -0.037922248 0.0097732004
0.01215 -0.037922248 0.0097732004
0.012 -0.037922248 0.0098315999
0.01185 -0.037922248 0.0098681003
0.0117 -0.037922248 0.0098315999
0.01155 -0.037922248 0.0097658997
0.0114 -0.037922248 0.0097367
0.01125 -0.037922248 0.0097147999
0.0111 -0.037922248 0.0097001996
0.01095 -0.037922248 0.0097439997
0.0108 -0.037922248 0.0098534999
0.01065 -0.037922248 0.0098607996
0.0105 -0.037922248 0.0098315999
0.01035 -0.037922248 0.0098096998
0.0102 -0.037922248 0.0098096998
0.01005 -0.037922248 0.0098388996
0.0098999999 -0.037922248 0.0099264998
0.0097500002 -0.037922248 0.0099994997
0.0096000005 -0.037922248 0.0099411001
0.0094499998 -0.037922248 0.0099556996
0.0093 -0.037922248 0.0099483998
0.0091500003 -0.037922248 0.0099338004
0.0089999996 -0.037922248 0.0098826997
0.0088499999 -0.037922248 0.0098315999
0.0087000001 -0.037922248 0.0098096998
0.0085500004 -0.037922248 0.0098243002
0.0083999997 -0.037922248 0.0098754
0.00825 -0.037922248 0.0098754
0.0081000002 -0.037922248 0.0098534999
0.0079500005 -0.037922248 0.0098681003
0.0077999998 -0.037922248 0.0099045997
0.00765 -0.037922248 0.0099411001
0.0074999998 -0.037922248 0.0099556996
0.0073500001 -0.037922248 0.0099483998
0.0071999999 -0.037922248 0.0099921999
0.0070500001 -0.037922248 0.0100579
0.0068999999 -0.037922248 0.010036
0.0067500002 -0.037922248 0.0100068
0.0066 -0.037922248 0.0099702999
0.0064500002 -0.037922248 0.0100214
0.0063 -0.037922248 0.010036
0.0061499998 -0.037922248 0.0100433
0.0060000001 -0.037922248 0.0100944
0.0058499998 -0.037922248 0.0100433
0.0057000001 -0.037922248 0.0099192001
0.0055499999 -0.037922248 0.0099192001
0.0054000001 -0.037922248 0.0099045997
0.0052499999 -0.037922248 0.0099264998
0.0051000002 -0.037922248 0.0099411001
0.00495 -0.037922248 0.0099338004
0.0048000002 -0.037922248 0.0099264998
0.00465 -0.037922248 0.0098826997
0.0044999998 -0.037922248 0.0099119004
0.0043500001 -0.037922248 0.0099264998
0.0041999999 -0.037922248 0.0099264998
0.0040500001 -0.037922248 0.0098900003
0.0038999999 -0.037922248 0.0098973
0.0037499999 -0.037922248 0.0099119004
0.0035999999 -0.037922248 0.0098754
0.00345 -0.037922248 0.0098243002
0.0033 -0.037922248 0.0097805001
0.00315 -0.037922248 0.0097586
0.003 -0.037922248 0.0098024001
0.00285 -0.037922248 0.0097658997
0.0027000001 -0.037922248 0.0098315999
0.0025500001 -0.037922248 0.0098534999
0.0024000001 -0.037922248 0.0098681003
0.0022499999 -0.037922248 0.0098681003
0.0020999999 -0.037922248 0.0098388996
0.0019499999 -0.037922248 0.0098462002
0.0018 -0.037922248 0.0098315999
0.00165 -0.037922248 0.0098243002
0.0015 -0.037922248 0.0098096998
0.00135 -0.037922248 0.0098169995
0.0012000001 -0.037922248 0.0098243002
0.00105 -0.037922248 0.0098534999
0.00089999998 -0.037922248 0.0098900003
0.00075000001 -0.037922248 0.0098973
0.00060000003 -0.037922248 0.0099045997
0.00044999999 -0.037922248 0.0098462002
0.00030000001 -0.037922248 0.0097586
0.00015000001 -0.037922248 0.0097951004
-0 -0.037922248 0.0098024001
-0.00015000001 -0.037922248 0.0098096998
-0.00030000001 -0.037922248 0.0097877998
-0.00044999999 -0.037922248 0.0097586
-0.00060000003 -0.037922248 0.0097586
-0.00075000001 -0.037922248 0.0098315999
-0.00089999998 -0.037922248 0.0098900003
-0.00105 -0.037922248 0.0098900003
-0.0012000001 -0.037922248 0.0098024001
-0.00135 -0.037922248 0.0096856002
-0.0015 -0.037922248 0.0097732004
-0.00165 -0.037922248 0.0097805001
-0.0018 -0.037922248 0.0097805001
-0.0019499999 -0.037922248 0.0098096998
-0.0020999999 -0.037922248 0.0098534999
-0.0022499999 -0.037922248 0.0098973
-0.0024000001 -0.037922248 0.0098681003
-0.0025500001 -0.037922248 0.0098462002
-0.0027000001 -0.037922248 0.0098534999
-0.00285 -0.037922248 0.0098607996
-0.003 -0.037922248 0.0098534999
-0.00315 -0.037922248 0.0098534999
-0.0033 -0.037922248 0.0098169995
-0.00345 -0.037922248 0.0097805001
-0.0035999999 -0.037922248 0.0098243002
-0.0037499999 -0.037922248 0.0098169995
-0.0038999999 -0.037922248 0.0099045997
-0.0040500001 -0.037922248 0.0098826997
-0.0041999999 -0.037922248 0.0098754
-0.0043500001 -0.037922248 0.0098096998
-0.0044999998 -0.037922248 0.0098388996
-0.00465 -0.037922248 0.0098681003
-0.0048000002 -0.037922248 0.0098534999
-0.00495 -0.037922248 0.0098534999
-0.0051000002 -0.037922248 0.0098169995
-0.0052499999 -0.037922248 0.0098388996
-0.0054000001 -0.037922248 0.0097220996
-0.0055499999 -0.037922248 0.0097877998
-0.0057000001 -0.037922248 0.0097877998
-0.0058499998 -0.037922248 0.0098243002
-0.0060000001 -0.037922248 0.0098243002
-0.0061499998 -0.037922248 0.0098096998
-0.0063 -0.037922248 0.0098388996
-0.0064500002 -0.037922248 0.0098607996
-0.0066 -0.037922248 0.0098607996
-0.0067500002 -0.037922248 0.0099192001
-0.0068999999 -0.037922248 0.0099630002
-0.0070500001 -0.037922248 0.0098607996
-0.0071999999 -0.037922248 0.0098024001
-0.0073500001 -0.037922248 0.0097877998
-0.0074999998 -0.037922248 0.0098388996
-0.00765 -0.037922248 0.0098973
-0.0077999998 -0.037922248 0.0098900003
-0.0079500005 -0.037922248 0.0099192001
-0.0081000002 -0.037922248 0.0098826997
-0.00825 -0.037922248 0.0098681003
-0.0083999997 -0.037922248 0.0098315999
-0.0085500004 -0.037922248 0.0098973
-0.0087000001 -0.037922248 0.0099119004
-0.0088499999 -0.037922248 0.0099119004
-0.0089999996 -0.037922248 0.0099045997
-0.0091500003 -0.037922248 0.0098607996
-0.0093 -0.037922248 0.0098462002
-0.0094499998 -0.037922248 0.0098900003
-0.0096000005 -0.037922248 0.0099483998
-0.0097500002 -0.037922248 0.0099264998
-0.0098999999 -0.037922248 0.0098681003
-0.01005 -0.037922248 0.0098315999
-0.0102 -0.037922248 0.0098169995
-0.01035 -0.037922248 0.0098462002
-0.0105 -0.037922248 0.0098754
-0.01065 -0.037922248 0.0099192001
-0.0108 -0.037922248 0.0099411001
-0.01095 -0.037922248 0.0099483998
-0.0111 -0.037922248 0.0099483998
-0.01125 -0.037922248 0.0099264998
-0.0114 -0.037922248 0.0098826997
-0.01155 -0.037922248 0.0098607996
-0.0117 -0.037922248 0.0098754
-0.01185 -0.037922248 0.0098900003
-0.012 -0.037922248 0.0098754
-0.01215 -0.037922248 0.0098900003
-0.0123 -0.037922248 0.0099192001
-0.01245 -0.037922248 0.0099556996
-0.0126 -0.037922248 0.0099702999
-0.01275 -0.037922248 0.0099702999
-0.0129 -0.037922248 0.0099556996
-0.01305 -0.037922248 0.0099411001
-0.0132 -0.037922248 0.0099411001
-0.01335 -0.037922248 0.0099119004
-0.0135 -0.037922248 0.0098754
-0.01365 -0.037922248 0.0099556996
-0.0138 -0.037922248 0.0099119004
-0.01395 -0.037922248 0.0099192001
-0.0141 -0.037922248 0.0099483998
-0.01425 -0.037922248 0.0099921999
-0.0144 -0.037922248 0.0100214
-0.01455 -0.037922248 0.0099630002
-0.0147 -0.037922248 0.0098754
-0.01485 -0.037922248 0.0100068
-0.015 -0.037922248 0.0099849002
-0.01515 -0.037922248 0.0100506
-0.0153 -0.037922248 0.0100214
-0.01545 -0.037922248 0.0099119004
-0.0156 -0.037922248 0.0098754
-0.01575 -0.037922248 0.0099119004
-0.015900001 -0.037922248 0.0099338004
-0.01605 -0.037922248 0.0099556996
-0.0162 -0.037922248 0.0099045997
-0.016349999 -0.037922248 0.0099045997
-0.0165 -0.037922248 0.0099338004
-0.016650001 -0.037922248 0.0099119004
-0.016799999 -0.037922248 0.0099411001
-0.01695 -0.037922248 0.0099702999
-0.017100001 -0.037922248 0.0099411001
-0.01725 -0.037922248 0.0099119004
-0.0174 -0.037922248 0.0099338004
-0.017550001 -0.037922248 0.0099338004
-0.0177 -0.037922248 0.0099045997
-0.01785 -0.037922248 0.0099921999
-0.017999999 -0.037922248 0.0099556996
-0.01815 -0.037922248 0.0099411001
-0.018300001 -0.037922248 0.0099119004
-0.018449999 -0.037922248 0.0099264998
-0.0186 -0.037922248 0.0099630002
-0.018750001 -0.037922248 0.0099192001
-0.0189 -0.037922248 0.0098826997
-0.01905 -0.037922248 0.0099338004
-0.019200001 -0.037922248 0.0099264998
-0.01935 -0.037922248 0.0099119004
-0.0195 -0.037922248 0.0099921999
-0.019649999 -0.037922248 0.0100214
-0.0198 -0.037922248 0.0099702999
-0.019950001 -0.037922248 0.0099338004
-0.020099999 -0.037922248 0.0099556996
-0.02025 -0.037922248 0.0099849002
-0.020400001 -0.037922248 0.0099483998
-0.02055 -0.037922248 0.0099119004
-0.0207 -0.037922248 0.0099775996
-0.020850001 -0.037922248 0.0099921999
-0.021 -0.037922248 0.0099994997
-0.02115 -0.037922248 0.0100141
-0.021299999 -0.037922248 0.0099702999
-0.02145 -0.037922248 0.0099264998
-0.021600001 -0.037922248 0.0099119004
-0.021749999 -0.037922248 0.0099411001
-0.0219 -0.037922248 0.0099921999
-0.022050001 -0.037922248 0.0099483998
-0.0222 -0.037922248 0.0099264998
-0.02235 -0.037922248 0.0099556996
-0.022500001 -0.037922248 0.0099921999
-0.02265 -0.037922248 0.0099849002
-0.0228 -0.037922248 0.0099630002
-0.022949999 -0.037922248 0.0099338004
-0.0231 -0.037922248 0.0099411001
-0.023250001 -0.037922248 0.0099483998
-0.023399999 -0.037922248 0.0099264998
-0.02355 -0.037922248 0.0099264998
-0.023700001 -0.037922248 0.0099849002
-0.02385 -0.037922248 0.0099921999
-0.024 -0.037922248 0.0099411001
-0.024150001 -0.037922248 0.0099264998
-0.0243 -0.037922248 0.0098681003
-0.02445 -0.037922248 0.0099192001
-0.024599999 -0.037922248 0.0099630002
-0.02475 -0.037922248 0.0099849002
-0.024900001 -0.037922248 0.0099994997
-0.025049999 -0.037922248 0.0099483998
-0.0252 -0.037922248 0.0099411001
-0.025350001 -0.037922248 0.0099921999
-0.0255 -0.037922248 0.0099411001
-0.02565 -0.037922248 0.0099775996
-0.025800001 -0.037922248 0.0099994997
-0.02595 -0.037922248 0.0099994997
-0.0261 -0.037922248 0.0100068
-0.026249999 -0.037922248 0.0100141
-0.0264 -0.037922248 0.0100141
-0.026550001 -0.037922248 0.0099921999
-0.026699999 -0.037922248 0.0099702999
-0.02685 -0.037922248 0.0099775996
-0.027000001 -0.037922248 0.0099556996
-0.02715 -0.037922248 0.0099338004
-0.0273 -0.037922248 0.0099556996
-0.027450001 -0.037922248 0.0100068
-0.0276 -0.037922248 0.010036
-0.02775 -0.037922248 0.0100652
-0.027899999 -0.037922248 0.0101017
-0.02805 -0.037922248 0.0101017
-0.028200001 -0.037922248 0.0100287
-0.028349999 -0.037922248 0.0099556996
-0.0285 -0.037922248 0.0098900003
-0.028650001 -0.037922248 0.0099119004
-0.0288 -0.037922248 0.0100579
-0.02895 -0.037922248 0.0100579
-0.029100001 -0.037922248 0.0101163
-0.02925 -0.037922248 0.0100944
-0.0294 -0.037922248 0.0100652
-0.029549999 -0.037922248 0.0101017
-0.0297 -0.037922248 0.0101017
-0.029850001 -0.037922248 0.0099994997
-0.029999999 -0.037922248 0.0100433
-0.03015 -0.037922248 0.0100725
-0.030300001 -0.037922248 0.010109
-0.030449999 -0.037922248 0.0101163
-0.0306 -0.037922248 0.0100798
-0.030750001 -0.037922248 0.0100287
-0.0309 -0.037922248 0.0100433
-0.03105 -0.037922248 0.0101163
-0.031199999 -0.037922248 0.0100652
-0.031350002 -0.037922248 0.010036
-0.031500001 -0.037922248 0.0100214
-0.031649999 -0.037922248 0.0100214
-0.031800002 -0.037922248 0.0100506
-0.031950001 -0.037922248 0.0100652
-0.032099999 -0.037922248 0.010036
-0.032249998 -0.037922248 0.010036
-0.032400001 -0.037922248 0.0101017
-0.03255 -0.037922248 0.0101601
-0.032699998 -0.037922248 0.0101674
-0.032850001 -0.037922248 0.0100944
-0.033 -0.037922248 0.0101017
-0.033149999 -0.037922248 0.0101017
-0.033300001 -0.037922248 0.0100944
-0.03345 -0.037922248 0.0100871
-0.033599999 -0.037922248 0.0100798
-0.033750001 -0.037922248 0.0101163
-0.0339 -0.037922248 0.0101601
-0.034049999 -0.037922248 0.0101455
-0.034200002 -0.037922248 0.0101017
-0.03435 -0.037922248 -inf
-0.034499999 -0.037922248 -inf
0.034499999 -0.036985908 -inf
0.03435 -0.036985908 -inf
0.034200002 -0.036985908 -inf
0.034049999 -0.036985908 -inf
0.0339 -0.036985908 -inf
0.033750001 -0.036985908 -inf
0.033599999 -0.036985908 -inf
0.03345 -0.036985908 -inf
0.033300001 -0.036985908 -inf
0.033149999 -0.036985908 -inf
0.033 -0.036985908 -inf
0.032850001 -0.036985908 -inf
0.032699998 -0.036985908 -inf
0.03255 -0.036985908 -inf
0.032400001 -0.036985908 -inf
0.032249998 -0.036985908 -inf
0.032099999 -0.036985908 -inf
0.031950001 -0.036985908 -inf
0.031800002 -0.036985908 -inf
0.031649999 -0.036985908 -inf
0.031500001 -0.036985908 -inf
0.031350002 -0.036985908 0.0097805001
0.031199999 -0.036985908 0.0097147999
0.03105 -0.036985908 0.0096928999
0.0309 -0.036985908 0.0097220996
0.030750001 -0.036985908 0.0097294003
0.0306 -0.036985908 0.0097439997
0.030449999 -0.036985908 0.0097367
0.030300001 -0.036985908 0.0097732004
0.03015 -0.036985908 0.0097075002
0.029999999 -0.036985908 0.0097513003
0.029850001 -0.036985908 0.0097586
0.0297 -0.036985908 0.0097439997
0.029549999 -0.036985908 0.0097513003
0.0294 -0.036985908 0.0097658997
0.02925 -0.036985908 0.0097513003
0.029100001 -0.036985908 0.0097001996
0.02895 -0.036985908 0.0096856002
0.0288 -0.036985908 0.0096126003
0.028650001 -0.036985908 0.0097294003
0.0285 -0.036985908 0.0097732004
0.028349999 -0.036985908 0.0097877998
0.028200001 -0.036985908 0.0097513003
0.02805 -0.036985908 0.0097075002
0.027899999 -0.036985908 0.0097586
0.02775 -0.036985908 0.0098315999
0.0276 -0.036985908 0.0098169995
0.027450001 -0.036985908 0.0097367
0.0273 -0.036985908 0.0097658997
0.02715 -0.036985908 0.0097294003
0.027000001 -0.036985908 0.0097732004
0.02685 -0.036985908 0.0097877998
0.026699999 -0.036985908 0.0097586
0.026550001 -0.036985908 0.0097586
0.0264 -0.036985908 0.0097220996
0.026249999 -0.036985908 0.0096856002
0.0261 -0.036985908 0.0097439997
0.02595 -0.036985908 0.0097439997
0.025800001 -0.036985908 0.0097951004
0.02565 -0.036985908 0.0098169995
0.0255 -0.036985908 0.0097877998
0.025350001 -0.036985908 0.0097513003
0.0252 -0.036985908 0.0097586
0.025049999 -0.036985908 0.0098024001
0.024900001 -0.036985908 0.0097732004
0.02475 -0.036985908 0.0096928999
0.024599999 -0.036985908 0.0098024001
0.02445 -0.036985908 0.0096782995
0.0243 -0.036985908 0.0097220996
0.024150001 -0.036985908 0.0097732004
0.024 -0.036985908 0.0097951004
0.02385 -0.036985908 0.0098024001
0.023700001 -0.036985908 0.0098169995
0.02355 -0.036985908 0.0098024001
0.023399999 -0.036985908 0.0098169995
0.023250001 -0.036985908 0.0098754
0.0231 -0.036985908 0.0098096998
0.022949999 -0.036985908 0.0098024001
0.0228 -0.036985908 0.0098024001
0.02265 -0.036985908 0.0097951004
0.022500001 -0.036985908 0.0097951004
0.02235 -0.036985908 0.0098096998
0.0222 -0.036985908 0.0098900003
0.022050001 -0.036985908 0.0098169995
0.0219 -0.036985908 0.0097513003
0.021749999 -0.036985908 0.0096490998
0.021600001 -0.036985908 0.0097658997
0.02145 -0.036985908 0.0098243002
0.021299999 -0.036985908 0.0097805001
0.02115 -0.036985908 0.0097367
0.021 -0.036985908 0.0097513003
0.020850001 -0.036985908 0.0097658997
0.0207 -0.036985908 0.0097951004
0.02055 -0.036985908 0.0098024001
0.020400001 -0.036985908 0.0098024001
0.02025 -0.036985908 0.0098754
0.020099999 -0.036985908 0.0098826997
0.019950001 -0.036985908 0.0098534999
0.0198 -0.036985908 0.0098681003
0.019649999 -0.036985908 0.0099119004
0.0195 -0.036985908 0.0098973
0.01935 -0.036985908 0.0098754
0.019200001 -0.036985908 0.0099119004
0.01905 -0.036985908 0.0099192001
0.0189 -0.036985908 0.0098973
0.018750001 -0.036985908 0.0098826997
0.0186 -0.036985908 0.0098681003
0.018449999 -0.036985908 0.0098315999
0.018300001 -0.036985908 0.0098243002
0.01815 -0.036985908 0.0098534999
0.017999999 -0.036985908 0.0098388996
0.01785 -0.036985908 0.0098754
0.0177 -0.036985908 0.0098315999
0.017550001 -0.036985908 0.0098826997
0.0174 -0.036985908 0.0099119004
0.01725 -0.036985908 0.0099483998
0.017100001 -0.036985908 0.0099702999
0.01695 -0.036985908 0.0099556996
0.016799999 -0.036985908 0.0099192001
0.016650001 -0.036985908 0.0099556996
0.0165 -0.036985908 0.0099702999
0.016349999 -0.036985908 0.0099192001
0.0162 -0.036985908 0.0099556996
0.01605 -0.036985908 0.0099411001
0.015900001 -0.036985908 0.0099192001
0.01575 -0.036985908 0.0098826997
0.0156 -0.036985908 0.0098534999
0.01545 -0.036985908 0.0098754
0.0153 -0.036985908 0.0098973
0.01515 -0.036985908 0.0099045997
0.015 -0.036985908 0.0099264998
0.01485 -0.036985908 0.0098826997
0.0147 -0.036985908 0.0098754
0.01455 -0.036985908 0.0098754
0.0144 -0.036985908 0.0099045997
0.01425 -0.036985908 0.0099775996
0.0141 -0.036985908 0.0099556996
0.01395 -0.036985908 0.0099921999
0.0138 -0.036985908 0.0099483998
0.01365 -0.036985908 0.0098607996
0.0135 -0.036985908 0.0098681003
0.01335 -0.036985908 0.0099045997
0.0132 -0.036985908 0.0099264998
0.01305 -0.036985908 0.0099192001
0.0129 -0.036985908 0.0099045997
0.01275 -0.036985908 0.0098826997
0.0126 -0.036985908 0.0098973
0.01245 -0.036985908 0.0099338004
0.0123 -0.036985908 0.0099630002
0.01215 -0.036985908 0.0099556996
0.012 -0.036985908 0.0098973
0.01185 -0.036985908 0.0098462002
0.0117 -0.036985908 0.0098534999
0.01155 -0.036985908 0.0099045997
0.0114 -0.036985908 0.0099411001
0.01125 -0.036985908 0.0099338004
0.0111 -0.036985908 0.0098754
0.01095 -0.036985908 0.0098826997
0.0108 -0.036985908 0.0098388996
0.01065 -0.036985908 0.0097586
0.0105 -0.036985908 0.0098024001
0.01035 -0.036985908 0.0098754
0.0102 -0.036985908 0.0099119004
0.01005 -0.036985908 0.0099264998
0.0098999999 -0.036985908 0.0099483998
0.0097500002 -0.036985908 0.0099483998
0.0096000005 -0.036985908 0.0099849002
0.0094499998 -0.036985908 0.0100214
0.0093 -0.036985908 0.0099483998
0.0091500003 -0.036985908 0.0098754
0.0089999996 -0.036985908 0.0098607996
0.0088499999 -0.036985908 0.0098754
0.0087000001 -0.036985908 0.0099192001
0.0085500004 -0.036985908 0.0099775996
0.0083999997 -0.036985908 0.0099119004
0.00825 -0.036985908 0.0098754
0.0081000002 -0.036985908 0.0099483998
0.0079500005 -0.036985908 0.0099338004
0.0077999998 -0.036985908 0.0099045997
0.00765 -0.036985908 0.0098681003
0.0074999998 -0.036985908 0.0098534999
0.0073500001 -0.036985908 0.0099045997
0.0071999999 -0.036985908 0.0099921999
0.0070500001 -0.036985908 0.0099630002
0.0068999999 -0.036985908 0.0099702999
0.0067500002 -0.036985908 0.0100141
0.0066 -0.036985908 0.0100141
0.0064500002 -0.036985908 0.0099994997
0.0063 -0.036985908 0.0099921999
0.0061499998 -0.036985908 0.0100068
0.0060000001 -0.036985908 0.0099921999
0.0058499998 -0.036985908 0.0099702999
0.0057000001 -0.036985908 0.0099411001
0.0055499999 -0.036985908 0.0099192001
0.0054000001 -0.036985908 0.0099483998
0.0052499999 -0.036985908 0.0099630002
0.0051000002 -0.036985908 0.0099994997
0.00495 -0.036985908 0.0099994997
0.0048000002 -0.036985908 0.0099630002
0.00465 -0.036985908 0.0099556996
0.0044999998 -0.036985908 0.0099849002
0.0043500001 -0.036985908 0.0099483998
0.0041999999 -0.036985908 0.0099775996
0.0040500001 -0.036985908 0.0099849002
0.0038999999 -0.036985908 0.0099483998
0.0037499999 -0.036985908 0.0099556996
0.0035999999 -0.036985908 0.0099775996
0.00345 -0.036985908 0.0099483998
0.0033 -0.036985908 0.0099192001
0.00315 -0.036985908 0.0098973
0.003 -0.036985908 0.0099045997
0.00285 -0.036985908 0.0098315999
0.0027000001 -0.036985908 0.0098169995
0.0025500001 -0.036985908 0.0098754
0.0024000001 -0.036985908 0.0099045997
0.0022499999 -0.036985908 0.0099045997
0.0020999999 -0.036985908 0.0098826997
0.0019499999 -0.036985908 0.0098607996
0.0018 -0.036985908 0.0098315999
0.00165 -0.036985908 0.0098024001
0.0015 -0.036985908 0.0098534999
0.00135 -0.036985908 0.0099045997
0.0012000001 -0.036985908 0.0099483998
0.00105 -0.036985908 0.0099264998
0.00089999998 -0.036985908 0.0099045997
0.00075000001 -0.036985908 0.0099264998
0.00060000003 -0.036985908 0.0099338004
0.00044999999 -0.036985908 0.0099556996
0.00030000001 -0.036985908 0.0098243002
0.00015000001 -0.036985908 0.0098315999
-0 -0.036985908 0.0098900003
-0.00015000001 -0.036985908 0.0098973
-0.00030000001 -0.036985908 0.0098973
-0.00044999999 -0.036985908 0.0099045997
-0.00060000003 -0.036985908 0.0098826997
-0.00075000001 -0.036985908 0.0098754
-0.00089999998 -0.036985908 0.0098900003
-0.00105 -0.036985908 0.0098754
-0.0012000001 -0.036985908 0.0098681003
-0.00135 -0.036985908 0.0099556996
-0.0015 -0.036985908 0.0098388996
-0.00165 -0.036985908 0.0099045997
-0.0018 -0.036985908 0.0098900003
-0.0019499999 -0.036985908 0.0098243002
-0.0020999999 -0.036985908 0.0098388996
-0.0022499999 -0.036985908 0.0098826997
-0.0024000001 -0.036985908 0.0099264998
-0.0025500001 -0.036985908 0.0099119004
-0.0027000001 -0.036985908 0.0098973
-0.00285 -0.036985908 0.0099483998
-0.003 -0.036985908 0.0099338004
-0.00315 -0.036985908 0.0099119004
-0.0033 -0.036985908 0.0098826997
-0.00345 -0.036985908 0.0098826997
-0.0035999999 -0.036985908 0.0099338004
-0.0037499999 -0.036985908 0.0099556996
-0.0038999999 -0.036985908 0.0099119004
-0.0040500001 -0.036985908 0.0098169995
-0.0041999999 -0.036985908 0.0098096998
-0.0043500001 -0.036985908 0.0098315999
-0.0044999998 -0.036985908 0.0098826997
-0.00465 -0.036985908 0.0099338004
-0.0048000002 -0.036985908 0.0099264998
-0.00495 -0.036985908 0.0098754
-0.0051000002 -0.036985908 0.0098534999
-0.0052499999 -0.036985908 0.0098754
-0.0054000001 -0.036985908 0.0098681003
-0.0055499999 -0.036985908 0.0098754
-0.0057000001 -0.036985908 0.0099264998
-0.0058499998 -0.036985908 0.0099411001
-0.0060000001 -0.036985908 0.0099338004
-0.0061499998 -0.036985908 0.0099338004
-0.0063 -0.036985908 0.0099119004
-0.0064500002 -0.036985908 0.0098754
-0.0066 -0.036985908 0.0098462002
-0.0067500002 -0.036985908 0.0099119004
-0.0068999999 -0.036985908 0.0099630002
-0.0070500001 -0.036985908 0.0099994997
-0.0071999999 -0.036985908 0.0099702999
-0.0073500001 -0.036985908 0.0099630002
-0.0074999998 -0.036985908 0.0099702999
-0.00765 -0.036985908 0.0099630002
-0.0077999998 -0.036985908 0.0099483998
-0.0079500005 -0.036985908 0.0099702999
-0.0081000002 -0.036985908 0.0099702999
-0.00825 -0.036985908 0.0099702999
-0.0083999997 -0.036985908 0.010036
-0.0085500004 -0.036985908 0.0100141
-0.0087000001 -0.036985908 0.0099264998
-0.0088499999 -0.036985908 0.0099045997
-0.0089999996 -0.036985908 0.0099483998
-0.0091500003 -0.036985908 0.0099702999
-0.0093 -0.036985908 0.0099119004
-0.0094499998 -0.036985908 0.0099483998
-0.0096000005 -0.036985908 0.0099630002
-0.0097500002 -0.036985908 0.0099338004
-0.0098999999 -0.036985908 0.0099045997
-0.01005 -0.036985908 0.0099483998
-0.0102 -0.036985908 0.0099630002
-0.01035 -0.036985908 0.0099483998
-0.0105 -0.036985908 0.0099630002
-0.01065 -0.036985908 0.0098973
-0.0108 -0.036985908 0.0099338004
-0.01095 -0.036985908 0.0099264998
-0.0111 -0.036985908 0.0099702999
-0.01125 -0.036985908 0.0099411001
-0.0114 -0.036985908 0.0099264998
-0.01155 -0.036985908 0.0099630002
-0.0117 -0.036985908 0.0099921999
-0.01185 -0.036985908 0.0099630002
-0.012 -0.036985908 0.0098534999
-0.01215 -0.036985908 0.0098900003
-0.0123 -0.036985908 0.0099483998
-0.01245 -0.036985908 0.0099338004
-0.0126 -0.036985908 0.0099849002
-0.01275 -0.036985908 0.0100141
-0.0129 -0.036985908 0.0099994997
-0.01305 -0.036985908 0.0099775996
-0.0132 -0.036985908 0.0100214
-0.01335 -0.036985908 0.0100287
-0.0135 -0.036985908 0.0100141
-0.01365 -0.036985908 0.0100141
-0.0138 -0.036985908 0.0099702999
-0.01395 -0.036985908 0.0099264998
-0.0141 -0.036985908 0.0099411001
-0.01425 -0.036985908 0.0100068
-0.0144 -0.036985908 0.0100506
-0.01455 -0.036985908 0.0100214
-0.0147 -0.036985908 0.0099556996
-0.01485 -0.036985908 0.0098826997
-0.015 -0.036985908 0.0098754
-0.01515 -0.036985908 0.0099775996
-0.0153 -0.036985908 0.0100287
-0.01545 -0.036985908 0.0100214
-0.0156 -0.036985908 0.0100141
-0.01575 -0.036985908 0.0100287
-0.015900001 -0.036985908 0.0100579
-0.01605 -0.036985908 0.0100871
-0.0162 -0.036985908 0.0099630002
-0.016349999 -0.036985908 0.0100287
-0.0165 -0.036985908 0.0099702999
-0.016650001 -0.036985908 0.0100068
-0.016799999 -0.036985908 0.0099849002
-0.01695 -0.036985908 0.0099775996
-0.017100001 -0.036985908 0.0099849002
-0.01725 -0.036985908 0.0099630002
-0.0174 -0.036985908 0.0099994997
-0.017550001 -0.036985908 0.0100287
-0.0177 -0.036985908 0.0100652
-0.01785 -0.036985908 0.0100506
-0.017999999 -0.036985908 0.0099411001
-0.01815 -0.036985908 0.0099483998
-0.018300001 -0.036985908 0.0099849002
-0.018449999 -0.036985908 0.0099994997
-0.0186 -0.036985908 0.0100141
-0.018750001 -0.036985908 0.0100287
-0.0189 -0.036985908 0.010036
-0.01905 -0.036985908 0.0099921999
