# .PCD v0.7 - Point Cloud Data file format
VERSION 0.7
FIELDS x y z
SIZE 4 4 4
TYPE F F F
COUNT 1 1 1
WIDTH 1621
HEIGHT 1
VIEWPOINT 0 0 0 1 0 0 0
POINTS 1621
DATA ascii
1.6695 2.5702515 0.642528
1.665 2.5702515 0.64296603
1.6604999 2.5702515 0.64296603
1.656 2.5702515 0.64274704
1.6515 2.5702515 0.64362299
1.6470001 2.5702515 0.644499
1.6424999 2.5702515 0.64384198
1.638 2.5702515 0.644499
1.6335001 2.5702515 0.64647001
1.6289999 2.5702515 0.64493698
1.6245 2.5702515 0.64515597
1.62 2.5702515 0.644499
1.6155 2.5702515 0.64493698
1.6110001 2.5702515 0.64515597
1.6065 2.5702515 0.64515597
1.602 2.5702515 0.64515597
1.5975 2.5702515 0.644499
1.5930001 2.5702515 0.64406103
1.5884999 2.5702515 0.64428002
1.584 2.5702515 0.64406103
1.5795001 2.5702515 0.64428002
1.5749999 2.5702515 0.64537495
1.5705 2.5702515 0.64471799
1.566 2.5702515 0.64471799
1.5615 2.5702515 0.64318502
1.5569999 2.5702515 0.64362299
1.5525 2.5702515 0.64318502
1.5480001 2.5702515 0.64428002
1.5434999 2.5702515 0.64428002
1.539 2.5702515 0.644499
1.5345 2.5702515 0.64428002
1.53 2.5702515 0.64428002
1.5255001 2.5702515 0.64318502
1.521 2.5702515 0.64099497
1.5165 2.5702515 0.63990003
1.512 2.5702515 0.63924301
1.5075001 2.5702515 0.638367
1.503 2.5702515 0.63814801
1.4985 2.5702515 0.63792896
1.4940001 2.5702515 0.63661498
1.4894999 2.5702515 0.63792896
1.485 2.5702515 0.64077598
1.4805 2.5702515 0.63946199
1.476 2.5702515 0.63858604
1.4715 2.5702515 0.63792896
1.467 2.5702515 0.63968098
1.4625 2.5702515 0.64011902
1.4579999 2.5702515 0.63770998
1.4535 2.5702515 0.63792896
1.449 2.5702515 0.63814801
1.4445 2.5702515 0.638367
1.4400001 2.5702515 0.63902402
1.4355 2.5702515 0.63968098
1.431 2.5702515 0.63946199
1.4265 2.5702515 0.63880503
1.4220001 2.5702515 0.638367
1.4175 2.5702515 0.63749099
1.413 2.5702515 0.63573903
1.4085001 2.5702515 0.63113999
1.1565 2.5702515 0.63551998
1.1520001 2.5702515 0.64055699
1.1475 2.5702515 0.64099497
1.143 2.5702515 0.64011902
1.1385001 2.5702515 0.640338
1.1339999 2.5702515 0.63990003
1.1295 2.5702515 0.63814801
1.125 2.5702515 0.63792896
1.1205 2.5702515 0.63968098
1.1160001 2.5702515 0.63946199
1.1115 2.5702515 0.63990003
1.107 2.5702515 0.63749099
1.1025 2.5702515 0.63792896
1.098 2.5702515 0.63792896
1.0934999 2.5702515 0.63858604
1.089 2.5702515 0.63946199
1.0845001 2.5702515 0.63880503
1.0799999 2.5702515 0.63792896
1.0755 2.5702515 0.63705301
1.071 2.5702515 0.63749099
1.0664999 2.5702515 0.63858604
1.062 2.5702515 0.63814801
1.0575 2.5702515 0.63858604
1.0530001 2.5702515 0.63968098
1.0484999 2.5702515 0.63902402
1.044 2.5702515 0.63792896
1.0395 2.5702515 0.63639599
1.035 2.5702515 0.63770998
1.0305001 2.5702515 0.63770998
1.026 2.5702515 0.638367
1.0215 2.5702515 0.63858604
1.017 2.5702515 0.63902402
1.0125 2.5702515 0.637272
1.008 2.5702515 0.63749099
1.0035 2.5702515 0.63814801
0.99900001 2.5702515 0.63858604
0.99449998 2.5702515 0.63946199
0.99000001 2.5702515 0.63858604
0.98550004 2.5702515 0.63924301
0.98099995 2.5702515 0.63814801
0.97649997 2.5702515 0.63902402
0.972 2.5702515 0.63968098
0.96749997 2.5702515 0.63858604
0.963 2.5702515 0.64011902
0.95850003 2.5702515 0.63924301
0.95400006 2.5702515 0.63880503
0.94949996 2.5702515 0.63924301
0.94499999 2.5702515 0.63924301
0.94050002 2.5702515 0.63946199
0.93599999 2.5702515 0.63902402
0.93150002 2.5702515 0.63858604
0.92699999 2.5702515 0.63946199
0.92250001 2.5702515 0.640338
0.91799998 2.5702515 0.63946199
0.91350001 2.5702515 0.63880503
0.90900004 2.5702515 0.63858604
0.90450001 2.5702515 0.63683397
0.89999998 2.5702515 0.638367
0.8955 2.5702515 0.637272
0.89099997 2.5702515 0.638367
0.8865 2.5702515 0.63858604
0.88200003 2.5702515 0.63902402
0.8775 2.5702515 0.63880503
0.87300003 2.5702515 0.63880503
0.86849999 2.5702515 0.63946199
0.86399996 2.5702515 0.63990003
0.85950005 2.5702515 0.64011902
0.85500002 2.5702515 0.63968098
0.85049999 2.5702515 0.63858604
0.84600002 2.5702515 0.63946199
0.84149998 2.5702515 0.63924301
0.83699995 2.5702515 0.63858604
0.83249998 2.5702515 0.640338
0.82800001 2.5702515 0.63946199
0.82350004 2.5702515 0.63968098
0.81900001 2.5702515 0.63990003
0.81449997 2.5702515 0.63880503
0.81 2.5702515 0.63880503
0.80550003 2.5702515 0.63858604
0.801 2.5702515 0.63814801
0.79650003 2.5702515 0.638367
0.792 2.5702515 0.63814801
0.78749996 2.5702515 0.63749099
0.78299999 2.5702515 0.63814801
0.77849996 2.5702515 0.63880503
0.77400005 2.5702515 0.637272
0.76950002 2.5702515 0.63902402
0.76499999 2.5702515 0.63573903
0.76050001 2.5702515 0.63749099
0.75599998 2.5702515 0.63705301
0.75150001 2.5702515 0.636177
0.74700004 2.5702515 0.63792896
0.74250001 2.5702515 0.63968098
0.73799998 2.5702515 0.63814801
0.7335 2.5702515 0.63705301
0.72899997 2.5702515 0.63749099
0.7245 2.5702515 0.638367
0.72000003 2.5702515 0.63792896
0.7155 2.5702515 0.63705301
0.71100003 2.5702515 0.63749099
0.70649999 2.5702515 0.638367
0.70199996 2.5702515 0.63924301
0.69749999 2.5702515 0.63880503
0.69300002 2.5702515 0.638367
0.68849999 2.5702515 0.63792896
0.68400002 2.5702515 0.63858604
0.67949998 2.5702515 0.63924301
0.67500001 2.5702515 0.63880503
0.67049998 2.5702515 0.63814801
0.66600001 2.5702515 0.63792896
0.66150004 2.5702515 0.638367
0.65700001 2.5702515 0.63880503
0.65249997 2.5702515 0.63858604
0.648 2.5702515 0.63858604
0.64349997 2.5702515 0.63924301
0.639 2.5702515 0.63880503
0.63450003 2.5702515 0.637272
0.63 2.5702515 0.63573903
0.62550002 2.5702515 0.63639599
0.62099999 2.5702515 0.63858604
0.61649996 2.5702515 0.63683397
0.61200005 2.5702515 0.63639599
0.60750002 2.5702515 0.63595802
0.60299999 2.5702515 0.63551998
0.59850001 2.5702515 0.63573903
0.59399998 2.5702515 0.63639599
0.58949995 2.5702515 0.63683397
0.58500004 2.5702515 0.637272
0.58050001 2.5702515 0.63770998
0.57600003 2.5702515 0.63770998
0.5715 2.5702515 0.63792896
0.56699997 2.5702515 0.63814801
0.5625 2.5702515 0.63770998
0.55800003 2.5702515 0.63749099
0.5535 2.5702515 0.63639599
0.54900002 2.5702515 0.63639599
0.54449999 2.5702515 0.63573903
0.53999996 2.5702515 0.63573903
0.53549999 2.5702515 0.637272
0.53100002 2.5702515 0.63661498
0.52650005 2.5702515 0.63595802
0.52200001 2.5702515 0.636177
0.51749998 2.5702515 0.63639599
0.51300001 2.5702515 0.63573903
0.50849998 2.5702515 0.63508201
0.50400001 2.5702515 0.63464403
0.49950001 2.5702515 0.63464403
0.495 2.5702515 0.63486302
0.49049997 2.5702515 0.63442504
0.486 2.5702515 0.63245398
0.4815 2.5702515 0.63376796
2.016 2.5983415 0.63946199
2.0115001 2.5983415 0.63990003
2.007 2.5983415 0.63683397
2.0024998 2.5983415 0.63508201
1.998 2.5983415 0.63573903
1.9935 2.5983415 0.63661498
1.989 2.5983415 0.63880503
1.9845001 2.5983415 0.64121395
1.98 2.5983415 0.642528
1.9754999 2.5983415 0.64274704
1.9710001 2.5983415 0.641433
1.9665 2.5983415 0.64099497
1.9619999 2.5983415 0.64187098
1.9575001 2.5983415 0.64230901
1.9529999 2.5983415 0.641433
1.9484999 2.5983415 0.64077598
1.944 2.5983415 0.64077598
1.9395 2.5983415 0.641433
1.9349999 2.5983415 0.64187098
1.9305 2.5983415 0.64208996
1.926 2.5983415 0.64187098
1.9214998 2.5983415 0.64230901
1.9170001 2.5983415 0.64230901
1.9124999 2.5983415 0.64208996
1.9080001 2.5983415 0.64011902
1.9035001 2.5983415 0.641433
1.8989999 2.5983415 0.64230901
1.8945001 2.5983415 0.64230901
1.89 2.5983415 0.64208996
1.8855 2.5983415 0.64208996
1.881 2.5983415 0.64187098
1.8765 2.5983415 0.64208996
1.872 2.5983415 0.64274704
1.8674999 2.5983415 0.64340401
1.863 2.5983415 0.64230901
1.8585 2.5983415 0.64296603
1.854 2.5983415 0.64121395
1.8495001 2.5983415 0.64055699
1.845 2.5983415 0.64055699
1.8405 2.5983415 0.64187098
1.836 2.5983415 0.64208996
1.8315001 2.5983415 0.64296603
1.827 2.5983415 0.642528
1.8225 2.5983415 0.64230901
1.8180001 2.5983415 0.64296603
1.8134999 2.5983415 0.64406103
1.809 2.5983415 0.64340401
1.8045 2.5983415 0.64340401
1.8 2.5983415 0.64384198
1.7955 2.5983415 0.642528
1.791 2.5983415 0.64296603
1.7865 2.5983415 0.642528
1.7819999 2.5983415 0.64208996
1.7775 2.5983415 0.64340401
1.773 2.5983415 0.64362299
1.7685 2.5983415 0.64121395
1.7640001 2.5983415 0.641433
1.7594999 2.5983415 0.64406103
1.755 2.5983415 0.64274704
1.7505 2.5983415 0.64274704
1.7460001 2.5983415 0.64318502
1.7415 2.5983415 0.64340401
1.737 2.5983415 0.64230901
1.7325001 2.5983415 0.64274704
1.7279999 2.5983415 0.64296603
1.7235 2.5983415 0.64362299
1.7190001 2.5983415 0.64471799
1.7145 2.5983415 0.64515597
1.71 2.5983415 0.64603198
1.7055 2.5983415 0.64384198
1.701 2.5983415 0.642528
1.6964999 2.5983415 0.64318502
1.692 2.5983415 0.64340401
1.6875 2.5983415 0.64384198
1.683 2.5983415 0.64362299
1.6785001 2.5983415 0.64340401
1.6739999 2.5983415 0.64384198
1.6695 2.5983415 0.64318502
1.665 2.5983415 0.64384198
1.6604999 2.5983415 0.64406103
1.656 2.5983415 0.64318502
1.6515 2.5983415 0.64187098
1.6470001 2.5983415 0.64165199
1.6424999 2.5983415 0.64384198
1.638 2.5983415 0.645594
1.6335001 2.5983415 0.64493698
1.6289999 2.5983415 0.64428002
1.6245 2.5983415 0.64296603
1.62 2.5983415 0.64406103
1.6155 2.5983415 0.644499
1.6110001 2.5983415 0.64581299
1.6065 2.5983415 0.64537495
1.602 2.5983415 0.64493698
1.5975 2.5983415 0.64428002
1.5930001 2.5983415 0.64296603
1.5884999 2.5983415 0.641433
1.584 2.5983415 0.64230901
1.5795001 2.5983415 0.64362299
1.5749999 2.5983415 0.64406103
1.5705 2.5983415 0.64384198
1.566 2.5983415 0.64274704
1.5615 2.5983415 0.64406103
1.5569999 2.5983415 0.64296603
1.5525 2.5983415 0.64406103
1.5480001 2.5983415 0.64230901
1.5434999 2.5983415 0.64428002
1.539 2.5983415 0.64406103
1.5345 2.5983415 0.64296603
1.53 2.5983415 0.64274704
1.5255001 2.5983415 0.64318502
1.521 2.5983415 0.64208996
1.5165 2.5983415 0.64077598
1.512 2.5983415 0.63946199
1.5075001 2.5983415 0.63814801
1.503 2.5983415 0.63792896
1.4985 2.5983415 0.63858604
1.4940001 2.5983415 0.63880503
1.4894999 2.5983415 0.63770998
1.485 2.5983415 0.63639599
1.4805 2.5983415 0.63792896
1.476 2.5983415 0.63858604
1.4715 2.5983415 0.63858604
1.467 2.5983415 0.63858604
1.4625 2.5983415 0.638367
1.4579999 2.5983415 0.638367
1.4535 2.5983415 0.63880503
1.449 2.5983415 0.63902402
1.4445 2.5983415 0.63858604
1.4400001 2.5983415 0.63770998
1.4355 2.5983415 0.63792896
1.431 2.5983415 0.63858604
1.4265 2.5983415 0.63814801
1.4220001 2.5983415 0.63814801
1.4175 2.5983415 0.63683397
1.413 2.5983415 0.638367
1.4085001 2.5983415 0.637272
1.4039999 2.5983415 0.63595802
1.3995 2.5983415 0.62895
1.1475 2.5983415 0.63486302
1.143 2.5983415 0.63968098
1.1385001 2.5983415 0.64099497
1.1339999 2.5983415 0.64011902
1.1295 2.5983415 0.63924301
1.125 2.5983415 0.638367
1.1205 2.5983415 0.63858604
1.1160001 2.5983415 0.63792896
1.1115 2.5983415 0.63792896
1.107 2.5983415 0.63749099
1.1025 2.5983415 0.63814801
1.098 2.5983415 0.63814801
1.0934999 2.5983415 0.63683397
1.089 2.5983415 0.63814801
1.0845001 2.5983415 0.63902402
1.0799999 2.5983415 0.63924301
1.0755 2.5983415 0.63858604
1.071 2.5983415 0.63880503
1.0664999 2.5983415 0.63990003
1.062 2.5983415 0.63968098
1.0575 2.5983415 0.63770998
1.0530001 2.5983415 0.63858604
1.0484999 2.5983415 0.638367
1.044 2.5983415 0.638367
1.0395 2.5983415 0.64011902
1.035 2.5983415 0.63880503
1.0305001 2.5983415 0.63946199
1.026 2.5983415 0.63968098
1.0215 2.5983415 0.63902402
1.017 2.5983415 0.63880503
1.0125 2.5983415 0.63814801
1.008 2.5983415 0.638367
1.0035 2.5983415 0.63880503
0.99900001 2.5983415 0.63880503
0.99449998 2.5983415 0.63792896
0.99000001 2.5983415 0.63683397
0.98550004 2.5983415 0.637272
0.98099995 2.5983415 0.63814801
0.97649997 2.5983415 0.63880503
0.972 2.5983415 0.63902402
0.96749997 2.5983415 0.63858604
0.963 2.5983415 0.63858604
0.95850003 2.5983415 0.63924301
0.95400006 2.5983415 0.640338
0.94949996 2.5983415 0.63990003
0.94499999 2.5983415 0.63924301
0.94050002 2.5983415 0.63946199
0.93599999 2.5983415 0.64011902
0.93150002 2.5983415 0.63946199
0.92699999 2.5983415 0.638367
0.92250001 2.5983415 0.63770998
0.91799998 2.5983415 0.63814801
0.91350001 2.5983415 0.63924301
0.90900004 2.5983415 0.63880503
0.90450001 2.5983415 0.63858604
0.89999998 2.5983415 0.63814801
0.8955 2.5983415 0.63749099
0.89099997 2.5983415 0.63749099
0.8865 2.5983415 0.63858604
0.88200003 2.5983415 0.638367
0.8775 2.5983415 0.63792896
0.87300003 2.5983415 0.638367
0.86849999 2.5983415 0.63858604
0.86399996 2.5983415 0.63792896
0.85950005 2.5983415 0.63749099
0.85500002 2.5983415 0.63792896
0.85049999 2.5983415 0.63902402
0.84600002 2.5983415 0.63902402
0.84149998 2.5983415 0.63902402
0.83699995 2.5983415 0.63990003
0.83249998 2.5983415 0.63946199
0.82800001 2.5983415 0.63661498
0.82350004 2.5983415 0.63661498
0.81900001 2.5983415 0.63573903
0.81449997 2.5983415 0.63683397
0.81 2.5983415 0.63705301
0.80550003 2.5983415 0.63683397
0.801 2.5983415 0.637272
0.79650003 2.5983415 0.63770998
0.792 2.5983415 0.63749099
0.78749996 2.5983415 0.637272
0.78299999 2.5983415 0.63683397
0.77849996 2.5983415 0.63639599
0.77400005 2.5983415 0.63814801
0.76950002 2.5983415 0.63968098
0.76499999 2.5983415 0.63924301
0.76050001 2.5983415 0.63814801
0.75599998 2.5983415 0.637272
0.75150001 2.5983415 0.63880503
0.74700004 2.5983415 0.63749099
0.74250001 2.5983415 0.63770998
0.73799998 2.5983415 0.63924301
0.7335 2.5983415 0.63924301
0.72899997 2.5983415 0.63814801
0.7245 2.5983415 0.63770998
0.72000003 2.5983415 0.63814801
0.7155 2.5983415 0.63814801
0.71100003 2.5983415 0.63924301
0.70649999 2.5983415 0.63858604
0.70199996 2.5983415 0.63770998
0.69749999 2.5983415 0.63770998
0.69300002 2.5983415 0.63814801
0.68849999 2.5983415 0.63814801
0.68400002 2.5983415 0.63814801
0.67949998 2.5983415 0.63858604
0.67500001 2.5983415 0.63792896
0.67049998 2.5983415 0.63749099
0.66600001 2.5983415 0.63749099
0.66150004 2.5983415 0.63683397
0.65700001 2.5983415 0.63770998
0.65249997 2.5983415 0.63902402
0.648 2.5983415 0.63858604
0.64349997 2.5983415 0.63749099
0.639 2.5983415 0.63770998
0.63450003 2.5983415 0.636177
0.63 2.5983415 0.63814801
0.62550002 2.5983415 0.63792896
0.62099999 2.5983415 0.636177
0.61649996 2.5983415 0.63595802
0.61200005 2.5983415 0.637272
0.60750002 2.5983415 0.63858604
0.60299999 2.5983415 0.63661498
0.59850001 2.5983415 0.63661498
0.59399998 2.5983415 0.637272
0.58949995 2.5983415 0.637272
0.58500004 2.5983415 0.63792896
0.58050001 2.5983415 0.63880503
0.57600003 2.5983415 0.637272
0.5715 2.5983415 0.63508201
0.56699997 2.5983415 0.63705301
0.5625 2.5983415 0.63770998
0.55800003 2.5983415 0.63683397
0.5535 2.5983415 0.63814801
0.54900002 2.5983415 0.63639599
0.54449999 2.5983415 0.63705301
0.53999996 2.5983415 0.63770998
0.53549999 2.5983415 0.63705301
0.53100002 2.5983415 0.636177
0.52650005 2.5983415 0.63573903
0.52200001 2.5983415 0.63573903
0.51749998 2.5983415 0.63376796
0.51300001 2.5983415 0.633111
0.50849998 2.5983415 0.63486302
0.50400001 2.5983415 0.63551998
0.49950001 2.5983415 0.634206
0.495 2.5983415 0.63442504
0.49049997 2.5983415 0.634206
0.486 2.5983415 0.63354897
0.4815 2.5983415 0.63551998
0.47700003 2.5983415 0.63661498
2.016 2.6264317 0.64165199
2.0115001 2.6264317 0.64208996
2.007 2.6264317 0.64011902
2.0024998 2.6264317 0.63573903
1.998 2.6264317 0.63332999
1.9935 2.6264317 0.63530099
1.989 2.6264317 0.63990003
1.9845001 2.6264317 0.64165199
1.98 2.6264317 0.64077598
1.9754999 2.6264317 0.64121395
1.9710001 2.6264317 0.64208996
1.9665 2.6264317 0.64296603
1.9619999 2.6264317 0.64187098
1.9575001 2.6264317 0.641433
1.9529999 2.6264317 0.64208996
1.9484999 2.6264317 0.64165199
1.944 2.6264317 0.64055699
1.9395 2.6264317 0.63968098
1.9349999 2.6264317 0.63924301
1.9305 2.6264317 0.640338
1.926 2.6264317 0.640338
1.9214998 2.6264317 0.64428002
1.9170001 2.6264317 0.64274704
1.9124999 2.6264317 0.641433
1.9080001 2.6264317 0.64165199
1.9035001 2.6264317 0.64011902
1.8989999 2.6264317 0.64099497
1.8945001 2.6264317 0.64230901
1.89 2.6264317 0.642528
1.8855 2.6264317 0.64362299
1.881 2.6264317 0.644499
1.8765 2.6264317 0.64384198
1.872 2.6264317 0.64493698
1.8674999 2.6264317 0.64384198
1.863 2.6264317 0.64340401
1.8585 2.6264317 0.64274704
1.854 2.6264317 0.64296603
1.8495001 2.6264317 0.64471799
1.845 2.6264317 0.64340401
1.8405 2.6264317 0.642528
1.836 2.6264317 0.64362299
1.8315001 2.6264317 0.64318502
1.827 2.6264317 0.64230901
1.8225 2.6264317 0.64230901
1.8180001 2.6264317 0.64296603
1.8134999 2.6264317 0.64428002
1.809 2.6264317 0.64406103
1.8045 2.6264317 0.64296603
1.8 2.6264317 0.64187098
1.7955 2.6264317 0.64099497
1.791 2.6264317 0.64055699
1.7865 2.6264317 0.64077598
1.7819999 2.6264317 0.640338
1.7775 2.6264317 0.641433
1.773 2.6264317 0.64362299
1.7685 2.6264317 0.64362299
1.7640001 2.6264317 0.64406103
1.7594999 2.6264317 0.64493698
1.755 2.6264317 0.645594
1.7505 2.6264317 0.64537495
1.7460001 2.6264317 0.644499
1.7415 2.6264317 0.64274704
1.737 2.6264317 0.64208996
1.7325001 2.6264317 0.64230901
1.7279999 2.6264317 0.64230901
1.7235 2.6264317 0.64362299
1.7190001 2.6264317 0.64515597
1.7145 2.6264317 0.64515597
1.71 2.6264317 0.64384198
1.7055 2.6264317 0.64296603
1.701 2.6264317 0.64318502
1.6964999 2.6264317 0.64384198
1.692 2.6264317 0.644499
1.6875 2.6264317 0.64471799
1.683 2.6264317 0.64187098
1.6785001 2.6264317 0.64230901
1.6739999 2.6264317 0.64406103
1.6695 2.6264317 0.64340401
1.665 2.6264317 0.64428002
1.6604999 2.6264317 0.64515597
1.656 2.6264317 0.64406103
1.6515 2.6264317 0.64318502
1.6470001 2.6264317 0.64384198
1.6424999 2.6264317 0.64428002
1.638 2.6264317 0.64493698
1.6335001 2.6264317 0.64603198
1.6289999 2.6264317 0.644499
1.6245 2.6264317 0.64274704
1.62 2.6264317 0.64340401
1.6155 2.6264317 0.64187098
1.6110001 2.6264317 0.64208996
1.6065 2.6264317 0.64406103
1.602 2.6264317 0.64471799
1.5975 2.6264317 0.64493698
1.5930001 2.6264317 0.64406103
1.5884999 2.6264317 0.64318502
1.584 2.6264317 0.64384198
1.5795001 2.6264317 0.64493698
1.5749999 2.6264317 0.64471799
1.5705 2.6264317 0.64362299
1.566 2.6264317 0.64230901
1.5615 2.6264317 0.64274704
1.5569999 2.6264317 0.64384198
1.5525 2.6264317 0.64406103
1.5480001 2.6264317 0.64384198
1.5434999 2.6264317 0.64406103
1.539 2.6264317 0.64428002
1.5345 2.6264317 0.64471799
1.53 2.6264317 0.64318502
1.5255001 2.6264317 0.64296603
1.521 2.6264317 0.64340401
1.5165 2.6264317 0.64187098
1.512 2.6264317 0.63990003
1.5075001 2.6264317 0.63792896
1.503 2.6264317 0.63661498
1.4985 2.6264317 0.636177
1.4940001 2.6264317 0.63683397
1.4894999 2.6264317 0.63792896
1.485 2.6264317 0.63792896
1.4805 2.6264317 0.63814801
1.476 2.6264317 0.63770998
1.4715 2.6264317 0.638367
1.467 2.6264317 0.63880503
1.4625 2.6264317 0.63880503
1.4579999 2.6264317 0.63946199
1.4535 2.6264317 0.64055699
1.449 2.6264317 0.64077598
1.4445 2.6264317 0.64011902
1.4400001 2.6264317 0.63924301
1.4355 2.6264317 0.63858604
1.431 2.6264317 0.638367
1.4265 2.6264317 0.63858604
1.4220001 2.6264317 0.63770998
1.4175 2.6264317 0.63749099
1.413 2.6264317 0.63770998
1.4085001 2.6264317 0.63661498
1.4039999 2.6264317 0.63858604
1.3995 2.6264317 0.63683397
1.395 2.6264317 0.63683397
1.1385001 2.6264317 0.63661498
1.1339999 2.6264317 0.63968098
1.1295 2.6264317 0.63902402
1.125 2.6264317 0.638367
1.1205 2.6264317 0.638367
1.1160001 2.6264317 0.63924301
1.1115 2.6264317 0.64055699
1.107 2.6264317 0.63902402
1.1025 2.6264317 0.63749099
1.098 2.6264317 0.63902402
1.0934999 2.6264317 0.63880503
1.089 2.6264317 0.638367
1.0845001 2.6264317 0.63858604
1.0799999 2.6264317 0.63880503
1.0755 2.6264317 0.63880503
1.071 2.6264317 0.63902402
1.0664999 2.6264317 0.63902402
1.062 2.6264317 0.63924301
1.0575 2.6264317 0.63858604
1.0530001 2.6264317 0.640338
1.0484999 2.6264317 0.63946199
1.044 2.6264317 0.64011902
1.0395 2.6264317 0.64011902
1.035 2.6264317 0.63858604
1.0305001 2.6264317 0.63858604
1.026 2.6264317 0.63858604
1.0215 2.6264317 0.638367
1.017 2.6264317 0.63924301
1.0125 2.6264317 0.63946199
1.008 2.6264317 0.63902402
1.0035 2.6264317 0.63924301
0.99900001 2.6264317 0.63902402
0.99449998 2.6264317 0.63749099
0.99000001 2.6264317 0.63705301
0.98550004 2.6264317 0.63814801
0.98099995 2.6264317 0.638367
0.97649997 2.6264317 0.63749099
0.972 2.6264317 0.63814801
0.96749997 2.6264317 0.63705301
0.963 2.6264317 0.63749099
0.95850003 2.6264317 0.638367
0.95400006 2.6264317 0.63924301
0.94949996 2.6264317 0.64011902
0.94499999 2.6264317 0.63946199
0.94050002 2.6264317 0.63880503
0.93599999 2.6264317 0.63792896
0.93150002 2.6264317 0.63705301
0.92699999 2.6264317 0.638367
0.92250001 2.6264317 0.64011902
0.91799998 2.6264317 0.640338
0.91350001 2.6264317 0.64077598
0.90900004 2.6264317 0.63902402
0.90450001 2.6264317 0.63770998
0.89999998 2.6264317 0.63880503
0.8955 2.6264317 0.63814801
0.89099997 2.6264317 0.63880503
0.8865 2.6264317 0.63902402
0.88200003 2.6264317 0.63924301
0.8775 2.6264317 0.63924301
0.87300003 2.6264317 0.63749099
0.86849999 2.6264317 0.63661498
0.86399996 2.6264317 0.63705301
0.85950005 2.6264317 0.637272
0.85500002 2.6264317 0.63705301
0.85049999 2.6264317 0.63858604
0.84600002 2.6264317 0.63814801
0.84149998 2.6264317 0.63749099
0.83699995 2.6264317 0.63683397
0.83249998 2.6264317 0.63770998
0.82800001 2.6264317 0.63770998
0.82350004 2.6264317 0.63880503
0.81900001 2.6264317 0.63902402
0.81449997 2.6264317 0.63683397
0.81 2.6264317 0.63683397
0.80550003 2.6264317 0.63705301
0.801 2.6264317 0.63683397
0.79650003 2.6264317 0.63683397
0.792 2.6264317 0.63705301
0.78749996 2.6264317 0.63749099
0.78299999 2.6264317 0.63705301
0.77849996 2.6264317 0.63530099
0.77400005 2.6264317 0.63508201
0.76950002 2.6264317 0.63551998
0.76499999 2.6264317 0.63639599
0.76050001 2.6264317 0.63814801
0.75599998 2.6264317 0.638367
0.75150001 2.6264317 0.63814801
0.74700004 2.6264317 0.63683397
0.74250001 2.6264317 0.63792896
0.73799998 2.6264317 0.63880503
0.7335 2.6264317 0.63924301
0.72899997 2.6264317 0.63880503
0.7245 2.6264317 0.63858604
0.72000003 2.6264317 0.63880503
0.7155 2.6264317 0.63749099
0.71100003 2.6264317 0.636177
0.70649999 2.6264317 0.63683397
0.70199996 2.6264317 0.63683397
0.69749999 2.6264317 0.637272
0.69300002 2.6264317 0.63770998
0.68849999 2.6264317 0.63749099
0.68400002 2.6264317 0.63749099
0.67949998 2.6264317 0.63880503
0.67500001 2.6264317 0.63792896
0.67049998 2.6264317 0.637272
0.66600001 2.6264317 0.63770998
0.66150004 2.6264317 0.63770998
0.65700001 2.6264317 0.63749099
0.65249997 2.6264317 0.63814801
0.648 2.6264317 0.63858604
0.64349997 2.6264317 0.63792896
0.639 2.6264317 0.637272
0.63450003 2.6264317 0.63792896
0.63 2.6264317 0.63814801
0.62550002 2.6264317 0.637272
0.62099999 2.6264317 0.63770998
0.61649996 2.6264317 0.63792896
0.61200005 2.6264317 0.637272
0.60750002 2.6264317 0.63530099
0.60299999 2.6264317 0.63683397
0.59850001 2.6264317 0.636177
0.59399998 2.6264317 0.63639599
0.58949995 2.6264317 0.63661498
0.58500004 2.6264317 0.636177
0.58050001 2.6264317 0.63683397
0.57600003 2.6264317 0.63661498
0.5715 2.6264317 0.63573903
0.56699997 2.6264317 0.63573903
0.5625 2.6264317 0.637272
0.55800003 2.6264317 0.636177
0.5535 2.6264317 0.63595802
0.54900002 2.6264317 0.63551998
0.54449999 2.6264317 0.63595802
0.53999996 2.6264317 0.63595802
0.53549999 2.6264317 0.63508201
0.53100002 2.6264317 0.63398701
0.52650005 2.6264317 0.63595802
0.52200001 2.6264317 0.63705301
0.51749998 2.6264317 0.636177
0.51300001 2.6264317 0.636177
0.50849998 2.6264317 0.63639599
0.50400001 2.6264317 0.63551998
0.49950001 2.6264317 0.636177
0.495 2.6264317 0.63464403
0.49049997 2.6264317 0.63398701
0.486 2.6264317 0.63398701
0.4815 2.6264317 0.63354897
0.47700003 2.6264317 0.63289201
2.016 2.6545219 0.64121395
2.0115001 2.6545219 0.64055699
2.007 2.6545219 0.63573903
2.0024998 2.6545219 0.63332999
1.998 2.6545219 0.63179702
1.9935 2.6545219 0.63398701
1.989 2.6545219 0.64055699
1.9845001 2.6545219 0.641433
1.98 2.6545219 0.64230901
1.9754999 2.6545219 0.642528
1.9710001 2.6545219 0.64274704
1.9665 2.6545219 0.64165199
1.9619999 2.6545219 0.64121395
1.9575001 2.6545219 0.641433
1.9529999 2.6545219 0.64077598
1.9484999 2.6545219 0.64055699
1.944 2.6545219 0.64077598
1.9395 2.6545219 0.64099497
1.9349999 2.6545219 0.64165199
1.9305 2.6545219 0.63902402
1.926 2.6545219 0.640338
1.9214998 2.6545219 0.640338
1.9170001 2.6545219 0.64296603
1.9124999 2.6545219 0.64165199
1.9080001 2.6545219 0.642528
1.9035001 2.6545219 0.64187098
1.8989999 2.6545219 0.64121395
1.8945001 2.6545219 0.64165199
1.89 2.6545219 0.64187098
1.8855 2.6545219 0.64208996
1.881 2.6545219 0.64318502
1.8765 2.6545219 0.64384198
1.872 2.6545219 0.64384198
1.8674999 2.6545219 0.64318502
1.863 2.6545219 0.64274704
1.8585 2.6545219 0.64384198
1.854 2.6545219 0.64187098
1.8495001 2.6545219 0.64274704
1.845 2.6545219 0.64230901
1.8405 2.6545219 0.641433
1.836 2.6545219 0.64165199
1.8315001 2.6545219 0.64384198
1.827 2.6545219 0.64296603
1.8225 2.6545219 0.641433
1.8180001 2.6545219 0.64340401
1.8134999 2.6545219 0.64384198
1.809 2.6545219 0.64274704
1.8045 2.6545219 0.64296603
1.8 2.6545219 0.64318502
1.7955 2.6545219 0.642528
1.791 2.6545219 0.64230901
1.7865 2.6545219 0.64340401
1.7819999 2.6545219 0.64384198
1.7775 2.6545219 0.64274704
1.773 2.6545219 0.64208996
1.7685 2.6545219 0.64340401
1.7640001 2.6545219 0.64296603
1.7594999 2.6545219 0.64406103
1.755 2.6545219 0.64515597
1.7505 2.6545219 0.644499
1.7460001 2.6545219 0.64340401
1.7415 2.6545219 0.64296603
1.737 2.6545219 0.64318502
1.7325001 2.6545219 0.64406103
1.7279999 2.6545219 0.64406103
1.7235 2.6545219 0.64318502
1.7190001 2.6545219 0.64318502
1.7145 2.6545219 0.64274704
1.71 2.6545219 0.64296603
1.7055 2.6545219 0.64318502
1.701 2.6545219 0.64296603
1.6964999 2.6545219 0.64362299
1.692 2.6545219 0.64318502
1.6875 2.6545219 0.64471799
1.683 2.6545219 0.64406103
1.6785001 2.6545219 0.64406103
1.6739999 2.6545219 0.64384198
1.6695 2.6545219 0.64318502
1.665 2.6545219 0.64362299
1.6604999 2.6545219 0.64406103
1.656 2.6545219 0.64384198
1.6515 2.6545219 0.64340401
1.6470001 2.6545219 0.64274704
1.6424999 2.6545219 0.64318502
1.638 2.6545219 0.64362299
1.6335001 2.6545219 0.64318502
1.6289999 2.6545219 0.64077598
1.6245 2.6545219 0.64165199
1.62 2.6545219 0.64384198
1.6155 2.6545219 0.64537495
1.6110001 2.6545219 0.64647001
1.6065 2.6545219 0.645594
1.602 2.6545219 0.64471799
1.5975 2.6545219 0.644499
1.5930001 2.6545219 0.64318502
1.5884999 2.6545219 0.64406103
1.584 2.6545219 0.64515597
1.5795001 2.6545219 0.64406103
1.5749999 2.6545219 0.64318502
1.5705 2.6545219 0.64340401
1.566 2.6545219 0.64362299
1.5615 2.6545219 0.64318502
1.5569999 2.6545219 0.641433
1.5525 2.6545219 0.64537495
1.5480001 2.6545219 0.64428002
1.5434999 2.6545219 0.64428002
1.539 2.6545219 0.64428002
1.5345 2.6545219 0.64406103
1.53 2.6545219 0.64384198
1.5255001 2.6545219 0.64274704
1.521 2.6545219 0.64208996
1.5165 2.6545219 0.64077598
1.512 2.6545219 0.63880503
1.5075001 2.6545219 0.63705301
1.503 2.6545219 0.63683397
1.4985 2.6545219 0.63749099
1.4940001 2.6545219 0.63814801
1.4894999 2.6545219 0.63814801
1.485 2.6545219 0.63705301
1.4805 2.6545219 0.63858604
1.476 2.6545219 0.63968098
1.4715 2.6545219 0.63749099
1.467 2.6545219 0.63814801
1.4625 2.6545219 0.63814801
1.4579999 2.6545219 0.63792896
1.4535 2.6545219 0.63749099
1.449 2.6545219 0.637272
1.4445 2.6545219 0.638367
1.4400001 2.6545219 0.63968098
1.4355 2.6545219 0.63858604
1.431 2.6545219 0.637272
1.4265 2.6545219 0.63792896
1.4220001 2.6545219 0.63770998
1.4175 2.6545219 0.63814801
1.413 2.6545219 0.63902402
1.4085001 2.6545219 0.63880503
1.4039999 2.6545219 0.63749099
1.3995 2.6545219 0.637272
1.395 2.6545219 0.63858604
1.3904999 2.6545219 0.63968098
1.386 2.6545219 0.63595802
1.1339999 2.6545219 0.63157803
1.1295 2.6545219 0.63902402
1.125 2.6545219 0.64077598
1.1205 2.6545219 0.64011902
1.1160001 2.6545219 0.63924301
1.1115 2.6545219 0.63924301
1.107 2.6545219 0.63880503
1.1025 2.6545219 0.63792896
1.098 2.6545219 0.63924301
1.0934999 2.6545219 0.63902402
1.089 2.6545219 0.63968098
1.0845001 2.6545219 0.64011902
1.0799999 2.6545219 0.63902402
1.0755 2.6545219 0.638367
1.071 2.6545219 0.63924301
1.0664999 2.6545219 0.64011902
1.062 2.6545219 0.63946199
1.0575 2.6545219 0.63902402
1.0530001 2.6545219 0.63880503
1.0484999 2.6545219 0.63902402
1.044 2.6545219 0.63968098
1.0395 2.6545219 0.638367
1.035 2.6545219 0.63858604
1.0305001 2.6545219 0.63595802
1.026 2.6545219 0.63749099
1.0215 2.6545219 0.63858604
1.017 2.6545219 0.637272
1.0125 2.6545219 0.63749099
1.008 2.6545219 0.638367
1.0035 2.6545219 0.63770998
0.99900001 2.6545219 0.63749099
0.99449998 2.6545219 0.63880503
0.99000001 2.6545219 0.63924301
0.98550004 2.6545219 0.63880503
0.98099995 2.6545219 0.637272
0.97649997 2.6545219 0.63814801
0.972 2.6545219 0.63946199
0.96749997 2.6545219 0.64011902
0.963 2.6545219 0.63990003
0.95850003 2.6545219 0.63968098
0.95400006 2.6545219 0.63924301
0.94949996 2.6545219 0.63880503
0.94499999 2.6545219 0.63792896
0.94050002 2.6545219 0.638367
0.93599999 2.6545219 0.63880503
0.93150002 2.6545219 0.63880503
0.92699999 2.6545219 0.63946199
0.92250001 2.6545219 0.63968098
0.91799998 2.6545219 0.63858604
0.91350001 2.6545219 0.63749099
0.90900004 2.6545219 0.63683397
0.90450001 2.6545219 0.63924301
0.89999998 2.6545219 0.63749099
0.8955 2.6545219 0.63705301
0.89099997 2.6545219 0.63946199
0.8865 2.6545219 0.63858604
0.88200003 2.6545219 0.63792896
0.8775 2.6545219 0.63902402
0.87300003 2.6545219 0.638367
0.86849999 2.6545219 0.637272
0.86399996 2.6545219 0.63661498
0.85950005 2.6545219 0.63661498
0.85500002 2.6545219 0.637272
0.85049999 2.6545219 0.63770998
0.84600002 2.6545219 0.63683397
0.84149998 2.6545219 0.63814801
0.83699995 2.6545219 0.63946199
0.83249998 2.6545219 0.63924301
0.82800001 2.6545219 0.63924301
0.82350004 2.6545219 0.63792896
0.81900001 2.6545219 0.63770998
0.81449997 2.6545219 0.63683397
0.81 2.6545219 0.63661498
0.80550003 2.6545219 0.63770998
0.801 2.6545219 0.63814801
0.79650003 2.6545219 0.63749099
0.792 2.6545219 0.63639599
0.78749996 2.6545219 0.63573903
0.78299999 2.6545219 0.63530099
0.77849996 2.6545219 0.63595802
0.77400005 2.6545219 0.63880503
0.76950002 2.6545219 0.63924301
0.76499999 2.6545219 0.63968098
0.76050001 2.6545219 0.63683397
0.75599998 2.6545219 0.63924301
0.75150001 2.6545219 0.63946199
0.74700004 2.6545219 0.63858604
0.74250001 2.6545219 0.637272
0.73799998 2.6545219 0.63705301
0.7335 2.6545219 0.63770998
0.72899997 2.6545219 0.63880503
0.7245 2.6545219 0.63946199
0.72000003 2.6545219 0.63924301
0.7155 2.6545219 0.63968098
0.71100003 2.6545219 0.63946199
0.70649999 2.6545219 0.63814801
0.70199996 2.6545219 0.63880503
0.69749999 2.6545219 0.63858604
0.69300002 2.6545219 0.63792896
0.68849999 2.6545219 0.63792896
0.68400002 2.6545219 0.638367
0.67949998 2.6545219 0.637272
0.67500001 2.6545219 0.63814801
0.67049998 2.6545219 0.63814801
0.66600001 2.6545219 0.63858604
0.66150004 2.6545219 0.63968098
0.65700001 2.6545219 0.63902402
0.65249997 2.6545219 0.63683397
0.648 2.6545219 0.63573903
0.64349997 2.6545219 0.63595802
0.639 2.6545219 0.63595802
0.63450003 2.6545219 0.637272
0.63 2.6545219 0.63770998
0.62550002 2.6545219 0.63661498
0.62099999 2.6545219 0.63749099
0.61649996 2.6545219 0.63770998
0.61200005 2.6545219 0.63705301
0.60750002 2.6545219 0.63683397
0.60299999 2.6545219 0.63595802
0.59850001 2.6545219 0.636177
0.59399998 2.6545219 0.63683397
0.58949995 2.6545219 0.63683397
0.58500004 2.6545219 0.63683397
0.58050001 2.6545219 0.63770998
0.57600003 2.6545219 0.63792896
0.5715 2.6545219 0.63639599
0.56699997 2.6545219 0.63639599
0.5625 2.6545219 0.637272
0.55800003 2.6545219 0.63749099
0.5535 2.6545219 0.636177
0.54900002 2.6545219 0.63639599
0.54449999 2.6545219 0.63595802
0.53999996 2.6545219 0.63595802
0.53549999 2.6545219 0.63530099
0.53100002 2.6545219 0.63683397
0.52650005 2.6545219 0.63749099
0.52200001 2.6545219 0.637272
0.51749998 2.6545219 0.63595802
0.51300001 2.6545219 0.63508201
0.50849998 2.6545219 0.636177
0.50400001 2.6545219 0.63705301
0.49950001 2.6545219 0.63595802
0.495 2.6545219 0.63464403
0.49049997 2.6545219 0.63573903
0.486 2.6545219 0.63464403
0.4815 2.6545219 0.63376796
2.0115001 2.6826122 0.64165199
2.007 2.6826122 0.63924301
2.0024998 2.6826122 0.63639599
1.998 2.6826122 0.63595802
1.9935 2.6826122 0.63770998
1.989 2.6826122 0.640338
1.9845001 2.6826122 0.64318502
1.98 2.6826122 0.64318502
1.9754999 2.6826122 0.64230901
1.9710001 2.6826122 0.64208996
1.9665 2.6826122 0.64187098
1.9619999 2.6826122 0.64274704
1.9575001 2.6826122 0.64165199
1.9529999 2.6826122 0.64055699
1.9484999 2.6826122 0.640338
1.944 2.6826122 0.641433
1.9395 2.6826122 0.64406103
1.9349999 2.6826122 0.64208996
1.9305 2.6826122 0.64165199
1.926 2.6826122 0.64055699
1.9214998 2.6826122 0.641433
1.9170001 2.6826122 0.64099497
1.9124999 2.6826122 0.64208996
1.9080001 2.6826122 0.64165199
1.9035001 2.6826122 0.64165199
1.8989999 2.6826122 0.64077598
1.8945001 2.6826122 0.64011902
1.89 2.6826122 0.64099497
1.8855 2.6826122 0.64165199
1.881 2.6826122 0.64099497
1.8765 2.6826122 0.641433
1.872 2.6826122 0.64274704
1.8674999 2.6826122 0.641433
1.863 2.6826122 0.64187098
1.8585 2.6826122 0.64274704
1.854 2.6826122 0.64208996
1.8495001 2.6826122 0.64296603
1.845 2.6826122 0.64099497
1.8405 2.6826122 0.64384198
1.836 2.6826122 0.64428002
1.8315001 2.6826122 0.642528
1.827 2.6826122 0.64362299
1.8225 2.6826122 0.64428002
1.8180001 2.6826122 0.644499
1.8134999 2.6826122 0.64428002
1.809 2.6826122 0.64384198
1.8045 2.6826122 0.64384198
1.8 2.6826122 0.64493698
1.7955 2.6826122 0.64428002
1.791 2.6826122 0.64274704
1.7865 2.6826122 0.64230901
1.7819999 2.6826122 0.64384198
1.7775 2.6826122 0.64274704
1.773 2.6826122 0.64274704
1.7685 2.6826122 0.64428002
1.7640001 2.6826122 0.64340401
1.7594999 2.6826122 0.641433
1.755 2.6826122 0.64296603
1.7505 2.6826122 0.64406103
1.7460001 2.6826122 0.64493698
1.7415 2.6826122 0.64471799
1.737 2.6826122 0.64362299
1.7325001 2.6826122 0.64362299
1.7279999 2.6826122 0.64406103
1.7235 2.6826122 0.64428002
1.7190001 2.6826122 0.64471799
1.7145 2.6826122 0.64603198
1.71 2.6826122 0.64581299
1.7055 2.6826122 0.644499
1.701 2.6826122 0.64406103
1.6964999 2.6826122 0.64296603
1.692 2.6826122 0.64384198
1.6875 2.6826122 0.64230901
1.683 2.6826122 0.64428002
1.6785001 2.6826122 0.64274704
1.6739999 2.6826122 0.64230901
1.6695 2.6826122 0.642528
1.665 2.6826122 0.64362299
1.6604999 2.6826122 0.64406103
1.656 2.6826122 0.64515597
1.6515 2.6826122 0.64515597
1.6470001 2.6826122 0.642528
1.6424999 2.6826122 0.64165199
1.638 2.6826122 0.642528
1.6335001 2.6826122 0.642528
1.6289999 2.6826122 0.64230901
1.6245 2.6826122 0.64318502
1.62 2.6826122 0.644499
1.6155 2.6826122 0.644499
1.6110001 2.6826122 0.645594
1.6065 2.6826122 0.64471799
1.602 2.6826122 0.64274704
1.5975 2.6826122 0.642528
1.5930001 2.6826122 0.64362299
1.5884999 2.6826122 0.64384198
1.584 2.6826122 0.64384198
1.5795001 2.6826122 0.64406103
1.5749999 2.6826122 0.64318502
1.5705 2.6826122 0.642528
1.566 2.6826122 0.64274704
1.5615 2.6826122 0.64406103
1.5569999 2.6826122 0.64493698
1.5525 2.6826122 0.644499
1.5480001 2.6826122 0.64428002
1.5434999 2.6826122 0.64296603
1.539 2.6826122 0.64274704
1.5345 2.6826122 0.64384198
1.53 2.6826122 0.64428002
1.5255001 2.6826122 0.64428002
1.521 2.6826122 0.64362299
1.5165 2.6826122 0.64121395
1.512 2.6826122 0.63924301
1.5075001 2.6826122 0.63749099
1.503 2.6826122 0.636177
1.4985 2.6826122 0.63573903
1.4940001 2.6826122 0.63639599
1.4894999 2.6826122 0.63792896
1.485 2.6826122 0.63880503
1.4805 2.6826122 0.63902402
1.476 2.6826122 0.63968098
1.4715 2.6826122 0.63968098
1.467 2.6826122 0.640338
1.4625 2.6826122 0.63880503
1.4579999 2.6826122 0.63814801
1.4535 2.6826122 0.63683397
1.449 2.6826122 0.63683397
1.4445 2.6826122 0.63792896
1.4400001 2.6826122 0.63858604
1.4355 2.6826122 0.63880503
1.431 2.6826122 0.63814801
1.4265 2.6826122 0.63749099
1.4220001 2.6826122 0.63792896
1.4175 2.6826122 0.63946199
1.413 2.6826122 0.63792896
1.4085001 2.6826122 0.63792896
1.4039999 2.6826122 0.63814801
1.3995 2.6826122 0.63749099
1.395 2.6826122 0.63924301
1.3904999 2.6826122 0.63924301
1.386 2.6826122 0.63705301
1.3815 2.6826122 0.63683397
1.377 2.6826122 0.63267297
1.125 2.6826122 0.634206
1.1205 2.6826122 0.63858604
1.1160001 2.6826122 0.63946199
1.1115 2.6826122 0.63858604
1.107 2.6826122 0.63990003
1.1025 2.6826122 0.637272
1.098 2.6826122 0.63705301
1.0934999 2.6826122 0.638367
1.089 2.6826122 0.63858604
1.0845001 2.6826122 0.63705301
1.0799999 2.6826122 0.637272
1.0755 2.6826122 0.637272
1.071 2.6826122 0.63749099
1.0664999 2.6826122 0.63814801
1.062 2.6826122 0.63770998
1.0575 2.6826122 0.638367
1.0530001 2.6826122 0.63792896
1.0484999 2.6826122 0.63770998
1.044 2.6826122 0.63902402
1.0395 2.6826122 0.63880503
1.035 2.6826122 0.63749099
1.0305001 2.6826122 0.63880503
1.026 2.6826122 0.638367
1.0215 2.6826122 0.637272
1.017 2.6826122 0.63792896
1.0125 2.6826122 0.63924301
1.008 2.6826122 0.63880503
1.0035 2.6826122 0.63770998
0.99900001 2.6826122 0.63749099
0.99449998 2.6826122 0.638367
0.99000001 2.6826122 0.63880503
0.98550004 2.6826122 0.63858604
0.98099995 2.6826122 0.63946199
0.97649997 2.6826122 0.63814801
0.972 2.6826122 0.63946199
0.96749997 2.6826122 0.63814801
0.963 2.6826122 0.63880503
0.95850003 2.6826122 0.63924301
0.95400006 2.6826122 0.63990003
0.94949996 2.6826122 0.64011902
0.94499999 2.6826122 0.63924301
0.94050002 2.6826122 0.63880503
0.93599999 2.6826122 0.63946199
0.93150002 2.6826122 0.63968098
0.92699999 2.6826122 0.64011902
0.92250001 2.6826122 0.64121395
0.91799998 2.6826122 0.641433
0.91350001 2.6826122 0.640338
0.90900004 2.6826122 0.63858604
0.90450001 2.6826122 0.63749099
0.89999998 2.6826122 0.63749099
0.8955 2.6826122 0.63858604
0.89099997 2.6826122 0.63749099
0.8865 2.6826122 0.638367
0.88200003 2.6826122 0.63858604
0.8775 2.6826122 0.63814801
0.87300003 2.6826122 0.63683397
0.86849999 2.6826122 0.63661498
0.86399996 2.6826122 0.63705301
0.85950005 2.6826122 0.63749099
0.85500002 2.6826122 0.63814801
0.85049999 2.6826122 0.63792896
0.84600002 2.6826122 0.63902402
0.84149998 2.6826122 0.640338
0.83699995 2.6826122 0.63858604
0.83249998 2.6826122 0.63792896
0.82800001 2.6826122 0.63858604
0.82350004 2.6826122 0.638367
0.81900001 2.6826122 0.63770998
0.81449997 2.6826122 0.63749099
0.81 2.6826122 0.63683397
0.80550003 2.6826122 0.63639599
0.801 2.6826122 0.636177
0.79650003 2.6826122 0.63683397
0.792 2.6826122 0.63749099
0.78749996 2.6826122 0.63770998
0.78299999 2.6826122 0.63814801
0.77849996 2.6826122 0.63814801
0.77400005 2.6826122 0.63770998
0.76950002 2.6826122 0.63902402
0.76499999 2.6826122 0.63946199
0.76050001 2.6826122 0.63990003
0.75599998 2.6826122 0.63990003
0.75150001 2.6826122 0.63814801
0.74700004 2.6826122 0.63705301
0.74250001 2.6826122 0.63792896
0.73799998 2.6826122 0.63792896
0.7335 2.6826122 0.63792896
0.72899997 2.6826122 0.63814801
0.7245 2.6826122 0.63814801
0.72000003 2.6826122 0.63880503
0.7155 2.6826122 0.63902402
0.71100003 2.6826122 0.63814801
0.70649999 2.6826122 0.63814801
0.70199996 2.6826122 0.63880503
0.69749999 2.6826122 0.63814801
0.69300002 2.6826122 0.638367
0.68849999 2.6826122 0.638367
0.68400002 2.6826122 0.637272
0.67949998 2.6826122 0.63705301
0.67500001 2.6826122 0.63792896
0.67049998 2.6826122 0.63705301
0.66600001 2.6826122 0.637272
0.66150004 2.6826122 0.63661498
0.65700001 2.6826122 0.63595802
0.65249997 2.6826122 0.63683397
0.648 2.6826122 0.63880503
0.64349997 2.6826122 0.64011902
0.639 2.6826122 0.63858604
0.63450003 2.6826122 0.63770998
0.63 2.6826122 0.63924301
0.62550002 2.6826122 0.63968098
0.62099999 2.6826122 0.63946199
0.61649996 2.6826122 0.63770998
0.61200005 2.6826122 0.63705301
0.60750002 2.6826122 0.63683397
0.60299999 2.6826122 0.63705301
0.59850001 2.6826122 0.636177
0.59399998 2.6826122 0.63683397
0.58949995 2.6826122 0.637272
0.58500004 2.6826122 0.63661498
0.58050001 2.6826122 0.636177
0.57600003 2.6826122 0.63530099
0.5715 2.6826122 0.63595802
0.56699997 2.6826122 0.63573903
0.5625 2.6826122 0.63530099
0.55800003 2.6826122 0.63551998
0.5535 2.6826122 0.63573903
0.54900002 2.6826122 0.63573903
0.54449999 2.6826122 0.63770998
0.53999996 2.6826122 0.637272
0.53549999 2.6826122 0.63705301
0.53100002 2.6826122 0.63705301
0.52650005 2.6826122 0.63661498
0.52200001 2.6826122 0.636177
0.51749998 2.6826122 0.63639599
0.51300001 2.6826122 0.63595802
0.50849998 2.6826122 0.63508201
0.50400001 2.6826122 0.63486302
0.49950001 2.6826122 0.63661498
0.495 2.6826122 0.63530099
0.49049997 2.6826122 0.634206
0.486 2.6826122 0.63442504
0.4815 2.6826122 0.63376796
2.016 2.7107024 0.64406103
2.0115001 2.7107024 0.641433
2.007 2.7107024 0.637272
2.0024998 2.7107024 0.63551998
1.998 2.7107024 0.63639599
1.9935 2.7107024 0.63705301
1.989 2.7107024 0.63858604
1.9845001 2.7107024 0.642528
1.98 2.7107024 0.64471799
1.9754999 2.7107024 0.64296603
1.9710001 2.7107024 0.63990003
1.9665 2.7107024 0.64011902
1.9619999 2.7107024 0.64055699
1.9575001 2.7107024 0.64121395
1.9529999 2.7107024 0.64230901
1.9484999 2.7107024 0.64230901
1.944 2.7107024 0.64077598
1.9395 2.7107024 0.63990003
1.9349999 2.7107024 0.64099497
1.9305 2.7107024 0.642528
1.926 2.7107024 0.64230901
1.9214998 2.7107024 0.64077598
1.9170001 2.7107024 0.64187098
1.9124999 2.7107024 0.642528
1.9080001 2.7107024 0.64099497
1.9035001 2.7107024 0.641433
1.8989999 2.7107024 0.64011902
1.8945001 2.7107024 0.640338
1.89 2.7107024 0.64121395
1.8855 2.7107024 0.64165199
1.881 2.7107024 0.64165199
1.8765 2.7107024 0.64230901
1.872 2.7107024 0.64340401
1.8674999 2.7107024 0.64384198
1.863 2.7107024 0.642528
1.8585 2.7107024 0.64165199
1.854 2.7107024 0.641433
1.8495001 2.7107024 0.64055699
1.845 2.7107024 0.63924301
1.8405 2.7107024 0.64165199
1.836 2.7107024 0.64340401
1.8315001 2.7107024 0.64318502
1.827 2.7107024 0.64121395
1.8225 2.7107024 0.64099497
1.8180001 2.7107024 0.64121395
1.8134999 2.7107024 0.641433
1.809 2.7107024 0.64077598
1.8045 2.7107024 0.641433
1.8 2.7107024 0.64296603
1.7955 2.7107024 0.64340401
1.791 2.7107024 0.64362299
1.7865 2.7107024 0.64296603
1.7819999 2.7107024 0.64274704
1.7775 2.7107024 0.640338
1.773 2.7107024 0.642528
1.7685 2.7107024 0.64274704
1.7640001 2.7107024 0.642528
1.7594999 2.7107024 0.64296603
1.755 2.7107024 0.641433
1.7505 2.7107024 0.64230901
1.7460001 2.7107024 0.64274704
1.7415 2.7107024 0.64471799
1.737 2.7107024 0.64428002
1.7325001 2.7107024 0.64340401
1.7279999 2.7107024 0.64340401
1.7235 2.7107024 0.64318502
1.7190001 2.7107024 0.64406103
1.7145 2.7107024 0.64581299
1.71 2.7107024 0.64581299
1.7055 2.7107024 0.64428002
1.701 2.7107024 0.64318502
1.6964999 2.7107024 0.64318502
1.692 2.7107024 0.642528
1.6875 2.7107024 0.64230901
1.683 2.7107024 0.641433
1.6785001 2.7107024 0.64362299
1.6739999 2.7107024 0.64384198
1.6695 2.7107024 0.64296603
1.665 2.7107024 0.64296603
1.6604999 2.7107024 0.64340401
1.656 2.7107024 0.64362299
1.6515 2.7107024 0.64340401
1.6470001 2.7107024 0.64362299
1.6424999 2.7107024 0.64384198
1.638 2.7107024 0.64296603
1.6335001 2.7107024 0.64318502
1.6289999 2.7107024 0.64406103
1.6245 2.7107024 0.64428002
1.62 2.7107024 0.64274704
1.6155 2.7107024 0.64428002
1.6110001 2.7107024 0.644499
1.6065 2.7107024 0.64296603
1.602 2.7107024 0.64406103
1.5975 2.7107024 0.64428002
1.5930001 2.7107024 0.64406103
1.5884999 2.7107024 0.64428002
1.584 2.7107024 0.64471799
1.5795001 2.7107024 0.64362299
1.5749999 2.7107024 0.64274704
1.5705 2.7107024 0.64274704
1.566 2.7107024 0.64384198
1.5615 2.7107024 0.64340401
1.5569999 2.7107024 0.642528
1.5525 2.7107024 0.641433
1.5480001 2.7107024 0.64165199
1.5434999 2.7107024 0.64340401
1.539 2.7107024 0.64362299
1.5345 2.7107024 0.64537495
1.53 2.7107024 0.644499
1.5255001 2.7107024 0.64471799
1.521 2.7107024 0.64296603
1.5165 2.7107024 0.63990003
1.512 2.7107024 0.637272
1.5075001 2.7107024 0.63639599
1.503 2.7107024 0.63705301
1.4985 2.7107024 0.637272
1.4940001 2.7107024 0.63814801
1.4894999 2.7107024 0.63858604
1.485 2.7107024 0.63858604
1.4805 2.7107024 0.63968098
1.476 2.7107024 0.63990003
1.4715 2.7107024 0.63968098
1.467 2.7107024 0.63661498
1.4625 2.7107024 0.63814801
1.4579999 2.7107024 0.63770998
1.4535 2.7107024 0.63749099
1.449 2.7107024 0.63792896
1.4445 2.7107024 0.63814801
1.4400001 2.7107024 0.63880503
1.4355 2.7107024 0.63946199
1.431 2.7107024 0.63880503
1.4265 2.7107024 0.637272
1.4220001 2.7107024 0.63749099
1.4175 2.7107024 0.63749099
1.413 2.7107024 0.63749099
1.4085001 2.7107024 0.63705301
1.4039999 2.7107024 0.63880503
1.3995 2.7107024 0.63749099
1.395 2.7107024 0.63749099
1.3904999 2.7107024 0.63814801
1.386 2.7107024 0.63705301
1.3815 2.7107024 0.63661498
1.377 2.7107024 0.63661498
1.3724999 2.7107024 0.63661498
1.1160001 2.7107024 0.63749099
1.1115 2.7107024 0.641433
1.107 2.7107024 0.64099497
1.1025 2.7107024 0.63880503
1.098 2.7107024 0.63858604
1.0934999 2.7107024 0.63924301
1.089 2.7107024 0.63946199
1.0845001 2.7107024 0.63924301
1.0799999 2.7107024 0.63902402
1.0755 2.7107024 0.63924301
1.071 2.7107024 0.63990003
1.0664999 2.7107024 0.640338
1.062 2.7107024 0.63924301
1.0575 2.7107024 0.63814801
1.0530001 2.7107024 0.63858604
1.0484999 2.7107024 0.63792896
1.044 2.7107024 0.63770998
1.0395 2.7107024 0.64055699
1.035 2.7107024 0.64055699
1.0305001 2.7107024 0.63880503
1.026 2.7107024 0.63770998
1.0215 2.7107024 0.63792896
1.017 2.7107024 0.63814801
1.0125 2.7107024 0.63902402
1.008 2.7107024 0.63946199
1.0035 2.7107024 0.63749099
0.99900001 2.7107024 0.63705301
0.99449998 2.7107024 0.63770998
0.99000001 2.7107024 0.63749099
0.98550004 2.7107024 0.63880503
0.98099995 2.7107024 0.63792896
0.97649997 2.7107024 0.63639599
0.972 2.7107024 0.63770998
0.96749997 2.7107024 0.64011902
0.963 2.7107024 0.64011902
0.95850003 2.7107024 0.64011902
0.95400006 2.7107024 0.63792896
0.94949996 2.7107024 0.63946199
0.94499999 2.7107024 0.640338
0.94050002 2.7107024 0.63902402
0.93599999 2.7107024 0.638367
0.93150002 2.7107024 0.638367
0.92699999 2.7107024 0.63814801
0.92250001 2.7107024 0.63902402
0.91799998 2.7107024 0.63990003
0.91350001 2.7107024 0.63924301
0.90900004 2.7107024 0.63858604
0.90450001 2.7107024 0.63792896
0.89999998 2.7107024 0.63814801
0.8955 2.7107024 0.63858604
0.89099997 2.7107024 0.63749099
0.8865 2.7107024 0.638367
0.88200003 2.7107024 0.63880503
0.8775 2.7107024 0.63814801
0.87300003 2.7107024 0.63858604
0.86849999 2.7107024 0.63858604
0.86399996 2.7107024 0.63858604
0.85950005 2.7107024 0.638367
0.85500002 2.7107024 0.63705301
0.85049999 2.7107024 0.63705301
0.84600002 2.7107024 0.63814801
0.84149998 2.7107024 0.63705301
0.83699995 2.7107024 0.63770998
0.83249998 2.7107024 0.63683397
0.82800001 2.7107024 0.63705301
0.82350004 2.7107024 0.63770998
0.81900001 2.7107024 0.63792896
0.81449997 2.7107024 0.63814801
0.81 2.7107024 0.63770998
0.80550003 2.7107024 0.63661498
0.801 2.7107024 0.636177
0.79650003 2.7107024 0.63661498
0.792 2.7107024 0.63661498
0.78749996 2.7107024 0.636177
0.78299999 2.7107024 0.63749099
0.77849996 2.7107024 0.63924301
0.77400005 2.7107024 0.63902402
0.76950002 2.7107024 0.638367
0.76499999 2.7107024 0.638367
0.76050001 2.7107024 0.638367
0.75599998 2.7107024 0.63661498
0.75150001 2.7107024 0.63792896
0.74700004 2.7107024 0.63770998
0.74250001 2.7107024 0.63792896
0.73799998 2.7107024 0.638367
0.7335 2.7107024 0.63880503
0.72899997 2.7107024 0.63946199
0.7245 2.7107024 0.63968098
0.72000003 2.7107024 0.63858604
0.7155 2.7107024 0.63770998
0.71100003 2.7107024 0.638367
0.70649999 2.7107024 0.63792896
0.70199996 2.7107024 0.638367
0.69749999 2.7107024 0.636177
0.69300002 2.7107024 0.63705301
0.68849999 2.7107024 0.63749099
0.68400002 2.7107024 0.63573903
0.67949998 2.7107024 0.63551998
0.67500001 2.7107024 0.63814801
0.67049998 2.7107024 0.63924301
0.66600001 2.7107024 0.63880503
0.66150004 2.7107024 0.63749099
0.65700001 2.7107024 0.63661498
0.65249997 2.7107024 0.63661498
0.648 2.7107024 0.63661498
0.64349997 2.7107024 0.63573903
0.639 2.7107024 0.63639599
0.63450003 2.7107024 0.63705301
0.63 2.7107024 0.63639599
0.62550002 2.7107024 0.63792896
0.62099999 2.7107024 0.63792896
0.61649996 2.7107024 0.63792896
0.61200005 2.7107024 0.63770998
0.60750002 2.7107024 0.63749099
0.60299999 2.7107024 0.63705301
0.59850001 2.7107024 0.63792896
0.59399998 2.7107024 0.637272
0.58949995 2.7107024 0.63639599
0.58500004 2.7107024 0.63639599
