# .PCD v0.7 - Point Cloud Data file format
VERSION 0.7
FIELDS x y z
SIZE 4 4 4
TYPE F F F
COUNT 1 1 1
WIDTH 1525
HEIGHT 1
VIEWPOINT 0 0 0 1 0 0 0
POINTS 1525
DATA ascii
0.43650001 -3.0197043 0.18000001
-0.081 -3.0197043 0.207156
-0.085500002 -3.0197043 0.19949099
-0.090000004 -3.0197043 0.191607
0.44100001 -2.9916143 0.169707
0.43650001 -2.9916143 0.17671499
0.43199998 -2.9916143 0.18306601
-0.108 -2.9916143 0.202995
-0.1125 -2.9916143 0.195987
0.44100001 -2.9635241 0.172116
0.43650001 -2.9635241 0.177591
0.43199998 -2.9635241 0.182409
-0.1305 -2.9635241 0.208689
-0.13499999 -2.9635241 0.202995
-0.13950001 -2.9635241 0.197301
-0.14400001 -2.9635241 0.19029301
0.44100001 -2.9354336 0.17189701
0.43650001 -2.9354336 0.17846699
0.43199998 -2.9354336 0.183723
-0.1575 -2.9354336 0.208689
-0.162 -2.9354336 0.19949099
-0.1665 -2.9354336 0.19532999
-0.171 -2.9354336 0.19248301
0.44100001 -2.9073436 0.168174
0.43650001 -2.9073436 0.174087
0.43199998 -2.9073436 0.180657
-0.18000001 -2.9073436 0.209565
-0.18449999 -2.9073436 0.206499
-0.189 -2.9073436 0.202338
-0.19350001 -2.9073436 0.197301
0.43650001 -2.8792531 0.17299201
0.43199998 -2.8792531 0.17978099
0.42750001 -2.8792531 0.18547501
-0.21599999 -2.8792531 0.205404
-0.22050001 -2.8792531 0.20058599
-0.22499999 -2.8792531 0.196863
0.43650001 -2.8511631 0.172773
0.43199998 -2.8511631 0.17846699
0.42750001 -2.8511631 0.18547501
-0.243 -2.8511631 0.21197399
-0.2475 -2.8511631 0.20890799
-0.252 -2.8511631 0.20584199
-0.25650001 -2.8511631 0.196206
0.43650001 -2.8230729 0.172116
0.43199998 -2.8230729 0.180438
0.42750001 -2.8230729 0.18722701
-0.27450001 -2.8230729 0.21000299
-0.27900001 -2.8230729 0.20343299
-0.28349999 -2.8230729 0.202995
-0.28800002 -2.8230729 0.20409
-0.29250002 -2.8230729 0.19949099
-0.29699999 -2.8230729 0.198834
0.44100001 -2.7949827 0.16839299
0.43650001 -2.7949827 0.174087
0.43199998 -2.7949827 0.18087599
0.42750001 -2.7949827 0.18678899
-0.315 -2.7949827 0.215259
-0.3195 -2.7949827 0.21022201
-0.324 -2.7949827 0.205404
-0.3285 -2.7949827 0.20190001
0.43650001 -2.7668924 0.17321099
0.43199998 -2.7668924 0.17890501
0.42750001 -2.7668924 0.18503699
-0.34650001 -2.7668924 0.21744901
-0.35099998 -2.7668924 0.213726
-0.35550001 -2.7668924 0.209784
-0.36000001 -2.7668924 0.20387101
-0.36449999 -2.7668924 0.202776
-0.36899999 -2.7668924 0.201243
0.44100001 -2.7388022 0.16751701
0.43650001 -2.7388022 0.17343
0.43199998 -2.7388022 0.179124
0.42750001 -2.7388022 0.185913
-0.3915 -2.7388022 0.21722999
-0.396 -2.7388022 0.216792
-0.4005 -2.7388022 0.21044101
-0.405 -2.7388022 0.204528
-0.4095 -2.7388022 0.202557
0.43650001 -2.710712 0.172773
0.43199998 -2.710712 0.177591
0.42750001 -2.710712 0.18569399
-0.43650001 -2.710712 0.21985801
-0.44100001 -2.710712 0.215478
-0.44549999 -2.710712 0.21197399
-0.44999999 -2.710712 0.21044101
-0.45450002 -2.710712 0.20759399
-0.45899999 -2.710712 0.205404
0.43650001 -2.6826217 0.172335
0.43199998 -2.6826217 0.17781001
0.42750001 -2.6826217 0.18306601
-0.486 -2.6826217 0.22292399
-0.49049997 -2.6826217 0.21876301
-0.495 -2.6826217 0.21460201
-0.49950001 -2.6826217 0.21306899
-0.50400001 -2.6826217 0.208251
-0.50849998 -2.6826217 0.20606101
0.43650001 -2.6545315 0.16839299
0.43199998 -2.6545315 0.17561999
0.42750001 -2.6545315 0.181752
-0.53549999 -2.6545315 0.225114
-0.53999996 -2.6545315 0.222048
-0.54449999 -2.6545315 0.218106
-0.54900002 -2.6545315 0.21591599
-0.5535 -2.6545315 0.21328801
-0.55800003 -2.6545315 0.20912701
0.43650001 -2.6264412 0.16751701
0.43199998 -2.6264412 0.17321099
0.42750001 -2.6264412 0.179562
0.42300001 -2.6264412 0.18700799
-0.58949995 -2.6264412 0.22686601
-0.59399998 -2.6264412 0.22664699
-0.59850001 -2.6264412 0.22139099
-0.60299999 -2.6264412 0.22007699
-0.60750002 -2.6264412 0.21591599
-0.61200005 -2.6264412 0.21306899
-0.61649996 -2.6264412 0.21044101
0.43650001 -2.598351 0.16839299
0.43199998 -2.598351 0.175401
0.42750001 -2.598351 0.18000001
0.42300001 -2.598351 0.18657
-0.64349997 -2.598351 0.22818001
-0.648 -2.598351 0.22949399
-0.65249997 -2.598351 0.227961
-0.65700001 -2.598351 0.22533299
-0.66150004 -2.598351 0.223143
-0.66600001 -2.598351 0.22248599
-0.67049998 -2.598351 0.22248599
-0.67500001 -2.598351 0.220734
-0.67949998 -2.598351 0.219639
-0.68400002 -2.598351 0.21284999
-1.3904999 -2.598351 0.241758
-1.395 -2.598351 0.245919
-1.3995 -2.598351 0.24920401
-1.4039999 -2.598351 0.25227001
-1.4085001 -2.598351 0.257745
0.43650001 -2.5702608 0.168174
0.43199998 -2.5702608 0.17452499
0.42750001 -2.5702608 0.18262799
-0.7245 -2.5702608 0.23255999
-0.7335 -2.5702608 0.23255999
-0.73799998 -2.5702608 0.228618
-0.74250001 -2.5702608 0.227742
-0.74700004 -2.5702608 0.22423799
-0.75150001 -2.5702608 0.220953
-0.75599998 -2.5702608 0.218982
-0.76050001 -2.5702608 0.21942
-0.76499999 -2.5702608 0.22051501
-0.76950002 -2.5702608 0.218106
-0.77400005 -2.5702608 0.216792
-0.77849996 -2.5702608 0.215259
-1.2735 -2.5702608 0.23650199
-1.278 -2.5702608 0.24153902
-1.2825 -2.5702608 0.24241501
-1.2869999 -2.5702608 0.243948
-1.2915 -2.5702608 0.24657601
-1.296 -2.5702608 0.24767099
-1.3005 -2.5702608 0.249642
-1.3049999 -2.5702608 0.251394
-1.3095 -2.5702608 0.252051
0.43650001 -2.5421708 0.170145
0.43199998 -2.5421708 0.17715301
0.42750001 -2.5421708 0.182409
-0.81900001 -2.5421708 0.23606402
-0.82800001 -2.5421708 0.23606402
-0.83249998 -2.5421708 0.23453099
-0.83699995 -2.5421708 0.231465
-0.84149998 -2.5421708 0.23387399
-0.84600002 -2.5421708 0.23255999
-0.85049999 -2.5421708 0.23102701
-0.85500002 -2.5421708 0.228618
-0.85950005 -2.5421708 0.227961
-0.86399996 -2.5421708 0.229275
-0.86849999 -2.5421708 0.227742
-0.87300003 -2.5421708 0.22467601
-0.8775 -2.5421708 0.224895
-0.88200003 -2.5421708 0.222267
-0.8865 -2.5421708 0.220296
-0.8955 -2.5421708 0.22007699
-0.89999998 -2.5421708 0.22161001
-0.90450001 -2.5421708 0.22248599
-0.90900004 -2.5421708 0.22248599
-0.91350001 -2.5421708 0.222048
-0.91799998 -2.5421708 0.220953
-0.92250001 -2.5421708 0.223143
-0.92699999 -2.5421708 0.221829
-1.1205 -2.5421708 0.22971299
-1.125 -2.5421708 0.230151
-1.1295 -2.5421708 0.22993201
-1.1339999 -2.5421708 0.232122
-1.1385001 -2.5421708 0.233436
-1.143 -2.5421708 0.23365499
-1.1475 -2.5421708 0.23409301
-1.1520001 -2.5421708 0.23606402
-1.1565 -2.5421708 0.238473
-1.161 -2.5421708 0.24022502
-1.1654999 -2.5421708 0.24241501
-1.1700001 -2.5421708 0.240444
-1.1745 -2.5421708 0.24088201
-1.1789999 -2.5421708 0.24132
-1.1835001 -2.5421708 0.24197699
-1.188 -2.5421708 0.245262
-1.1925 -2.5421708 0.24613799
-1.197 -2.5421708 0.24745199
-1.2014999 -2.5421708 0.24854702
-1.206 -2.5421708 0.252051
0.43650001 -2.5140803 0.167955
0.43199998 -2.5140803 0.17364901
0.42750001 -2.5140803 0.18131401
0.42750001 -2.48599 0.17321099
0.42300001 -2.48599 0.17846699
0.41849998 -2.48599 0.185256
0.41849998 -2.4578998 0.16773601
0.414 -2.4578998 0.175182
0.4095 -2.4578998 0.18197101
0.405 -2.4578998 0.18810299
0.396 -2.4298096 0.17321099
0.3915 -2.4298096 0.17978099
0.38700002 -2.4298096 0.18547501
0.37350002 -2.4017196 0.170145
0.36899999 -2.4017196 0.177591
0.36449999 -2.4017196 0.183723
0.36000001 -2.4017196 0.18700799
0.35550001 -2.4017196 0.190074
0.22499999 -2.3455391 0.18197101
0.22050001 -2.3455391 0.19511099
-1.3455 -2.3455391 0.25686902
-1.4535 -2.3455391 0.26124901
-1.4579999 -2.3455391 0.26124901
-1.503 -2.3455391 0.26015398
-1.5075001 -2.3455391 0.26212499
-1.5569999 -2.3455391 0.260373
-1.5615 -2.3455391 0.25949699
-1.566 -2.3455391 0.25949699
-1.5705 -2.3455391 0.25949699
-1.6065 -2.3455391 0.25949699
-0.1575 -2.3174486 0.190731
-0.162 -2.3174486 0.196206
-0.1665 -2.3174486 0.20211901
-0.171 -2.3174486 0.20890799
-0.22050001 -2.3174486 0.202995
-0.22499999 -2.3174486 0.202776
-0.2295 -2.3174486 0.20211901
-0.234 -2.3174486 0.201243
-0.23850001 -2.3174486 0.199929
-0.243 -2.3174486 0.19971001
-0.2475 -2.3174486 0.201462
-0.252 -2.3174486 0.20168099
-0.29699999 -2.3174486 0.19971001
-0.30149999 -2.3174486 0.19971001
-0.30600002 -2.3174486 0.19971001
-0.36899999 -2.3174486 0.201243
0.2025 -2.2331779 0.177591
1.863 -2.2050879 0.127221
1.8585 -2.2050879 0.124593
1.854 -2.2050879 0.12327901
1.8495001 -2.2050879 0.12262201
1.845 -2.2050879 0.119337
1.8405 -2.2050879 0.119556
1.836 -2.2050879 0.11867999
1.8315001 -2.2050879 0.115176
0.49950001 -2.2050879 0.17890501
0.495 -2.2050879 0.17255399
0.49049997 -2.2050879 0.17036399
0.486 -2.2050879 0.16883101
0.4815 -2.2050879 0.16642201
0.46349999 -2.2050879 0.16620299
0.207 -2.2050879 0.181752
-0.1665 -2.2050879 0.194235
1.854 -2.1769974 0.126783
1.8495001 -2.1769974 0.123936
1.845 -2.1769974 0.12262201
1.8405 -2.1769974 0.121089
1.836 -2.1769974 0.119994
1.8315001 -2.1769974 0.119775
1.827 -2.1769974 0.118899
1.8225 -2.1769974 0.11649
1.8180001 -2.1769974 0.114738
1.0530001 -2.1769974 0.14430299
0.51300001 -2.1769974 0.169926
-0.1665 -2.1769974 0.19094999
-0.171 -2.1769974 0.199929
1.845 -2.1489074 0.127002
1.8405 -2.1489074 0.123936
1.836 -2.1489074 0.12284099
1.8315001 -2.1489074 0.12196501
1.827 -2.1489074 0.120432
1.8225 -2.1489074 0.119337
1.8180001 -2.1489074 0.118899
1.8134999 -2.1489074 0.11846101
1.809 -2.1489074 0.11736601
1.8045 -2.1489074 0.114519
1.044 -2.1489074 0.14430299
-0.1665 -2.1489074 0.192045
-0.171 -2.1489074 0.19817699
-0.17549999 -2.1489074 0.206499
-0.2025 -2.1489074 0.19511099
-0.207 -2.1489074 0.19664401
-0.2115 -2.1489074 0.19554901
-0.21599999 -2.1489074 0.19379701
-0.22050001 -2.1489074 0.194673
-0.22499999 -2.1489074 0.19532999
-0.2295 -2.1489074 0.195768
-0.234 -2.1489074 0.19511099
-0.23850001 -2.1489074 0.194235
-0.243 -2.1489074 0.194673
-0.2475 -2.1489074 0.19532999
-0.26550001 -2.1489074 0.19554901
-0.26999998 -2.1489074 0.196206
-0.27450001 -2.1489074 0.19554901
-0.27900001 -2.1489074 0.19511099
-0.29250002 -2.1489074 0.195768
-0.29699999 -2.1489074 0.197301
-0.30149999 -2.1489074 0.196206
-0.30600002 -2.1489074 0.19817699
-0.3105 -2.1489074 0.197301
-0.315 -2.1489074 0.197082
-0.3195 -2.1489074 0.197301
-0.324 -2.1489074 0.197082
-0.333 -2.1489074 0.197301
-0.33750001 -2.1489074 0.19773901
1.845 -2.1208172 0.128097
1.8405 -2.1208172 0.123936
1.836 -2.1208172 0.12196501
1.8315001 -2.1208172 0.12087001
1.827 -2.1208172 0.119556
1.8225 -2.1208172 0.11911801
1.8180001 -2.1208172 0.119556
1.8134999 -2.1208172 0.119775
1.809 -2.1208172 0.120213
1.8045 -2.1208172 0.120213
1.8 -2.1208172 0.11846101
1.7955 -2.1208172 0.118899
1.791 -2.1208172 0.11846101
1.7865 -2.1208172 0.114519
0.19350001 -2.1208172 0.186351
0.189 -2.1208172 0.18700799
0.18449999 -2.1208172 0.187665
0.18000001 -2.1208172 0.18722701
0.17549999 -2.1208172 0.187446
0.171 -2.1208172 0.18810299
0.1665 -2.1208172 0.18810299
0.162 -2.1208172 0.18700799
0.1575 -2.1208172 0.18613201
0.15300001 -2.1208172 0.187446
0.1485 -2.1208172 0.18700799
0.14400001 -2.1208172 0.186351
0.13950001 -2.1208172 0.18700799
0.13499999 -2.1208172 0.187446
0.1305 -2.1208172 0.18722701
0.126 -2.1208172 0.18700799
0.1215 -2.1208172 0.18657
0.117 -2.1208172 0.185913
0.1125 -2.1208172 0.18613201
0.108 -2.1208172 0.18613201
0.1035 -2.1208172 0.18657
0.098999999 -2.1208172 0.187665
0.094499998 -2.1208172 0.18700799
0.090000004 -2.1208172 0.18613201
0.085500002 -2.1208172 0.18700799
0.081 -2.1208172 0.187665
0.076500006 -2.1208172 0.18657
0.072000004 -2.1208172 0.18547501
0.067499995 -2.1208172 0.185913
0.063000001 -2.1208172 0.188541
0.058499999 -2.1208172 0.18613201
0.053999998 -2.1208172 0.187665
0.0495 -2.1208172 0.187884
0.045000002 -2.1208172 0.18832201
0.0405 -2.1208172 0.188541
0.036000002 -2.1208172 0.187665
0.031500001 -2.1208172 0.18700799
0.026999999 -2.1208172 0.187446
0.022500001 -2.1208172 0.18722701
0.018000001 -2.1208172 0.186351
0.013499999 -2.1208172 0.18547501
0.0090000005 -2.1208172 0.18613201
0.0045000003 -2.1208172 0.18569399
-0 -2.1208172 0.185913
-0.0045000003 -2.1208172 0.186351
-0.0090000005 -2.1208172 0.186351
-0.013499999 -2.1208172 0.186351
-0.018000001 -2.1208172 0.18613201
-0.022500001 -2.1208172 0.187446
-0.026999999 -2.1208172 0.188541
-0.031500001 -2.1208172 0.18722701
-0.036000002 -2.1208172 0.188979
-0.0405 -2.1208172 0.187884
-0.045000002 -2.1208172 0.187665
-0.0495 -2.1208172 0.18810299
-0.053999998 -2.1208172 0.18810299
-0.058499999 -2.1208172 0.188541
-0.063000001 -2.1208172 0.188979
-0.067499995 -2.1208172 0.18919799
-0.072000004 -2.1208172 0.187884
-0.076500006 -2.1208172 0.18919799
-0.081 -2.1208172 0.188541
-0.085500002 -2.1208172 0.187884
-0.094499998 -2.1208172 0.187884
-0.098999999 -2.1208172 0.187884
-0.108 -2.1208172 0.18876
-0.1125 -2.1208172 0.18876
-0.13499999 -2.1208172 0.190512
-0.13950001 -2.1208172 0.190512
-0.15300001 -2.1208172 0.190074
-0.162 -2.1208172 0.192045
-0.1665 -2.1208172 0.19314
-0.171 -2.1208172 0.198615
-0.17549999 -2.1208172 0.20387101
-0.243 -2.1208172 0.212631
-0.2475 -2.1208172 0.21306899
-0.252 -2.1208172 0.213726
-0.25650001 -2.1208172 0.213507
-0.26550001 -2.1208172 0.213507
-0.27450001 -2.1208172 0.21438301
-0.27900001 -2.1208172 0.214821
-0.29699999 -2.1208172 0.215478
-0.30149999 -2.1208172 0.21219301
-0.30600002 -2.1208172 0.213945
-0.3105 -2.1208172 0.215259
-0.315 -2.1208172 0.21591599
-0.324 -2.1208172 0.216792
-0.3285 -2.1208172 0.215478
-0.333 -2.1208172 0.21460201
-0.33750001 -2.1208172 0.21504
-0.34200001 -2.1208172 0.21504
-0.34650001 -2.1208172 0.21591599
-0.35099998 -2.1208172 0.21701099
-0.35550001 -2.1208172 0.216135
-0.36000001 -2.1208172 0.216573
-0.36449999 -2.1208172 0.21569701
-0.36899999 -2.1208172 0.216135
-0.37350002 -2.1208172 0.216792
-0.37799999 -2.1208172 0.216792
-0.38249999 -2.1208172 0.216135
-0.38700002 -2.1208172 0.21569701
-0.3915 -2.1208172 0.215478
-0.396 -2.1208172 0.214821
-0.4005 -2.1208172 0.215478
-0.405 -2.1208172 0.215478
-0.4095 -2.1208172 0.21569701
-0.414 -2.1208172 0.21460201
-0.41849998 -2.1208172 0.21416399
-0.42300001 -2.1208172 0.21438301
-0.42750001 -2.1208172 0.215259
-0.43199998 -2.1208172 0.216135
-0.43650001 -2.1208172 0.21569701
-0.44100001 -2.1208172 0.21416399
-0.44549999 -2.1208172 0.21591599
-0.44999999 -2.1208172 0.21416399
-0.45450002 -2.1208172 0.21635401
-0.45899999 -2.1208172 0.21635401
-0.46349999 -2.1208172 0.216792
-0.46799999 -2.1208172 0.21701099
-0.4725 -2.1208172 0.21722999
-0.47700003 -2.1208172 0.217668
-0.4815 -2.1208172 0.21701099
-0.486 -2.1208172 0.21701099
-0.49049997 -2.1208172 0.216573
-0.495 -2.1208172 0.217887
-0.49950001 -2.1208172 0.215259
-0.50400001 -2.1208172 0.216135
-0.50849998 -2.1208172 0.216573
-0.51300001 -2.1208172 0.21722999
-0.51749998 -2.1208172 0.217668
-0.52200001 -2.1208172 0.217887
-0.52650005 -2.1208172 0.218106
-0.53100002 -2.1208172 0.218106
-0.53549999 -2.1208172 0.219201
-0.53999996 -2.1208172 0.218106
-0.54449999 -2.1208172 0.21701099
-0.54900002 -2.1208172 0.21701099
-0.5535 -2.1208172 0.217668
-0.55800003 -2.1208172 0.21832499
-0.5625 -2.1208172 0.217668
-0.56699997 -2.1208172 0.216792
-0.5715 -2.1208172 0.216792
-0.57600003 -2.1208172 0.21744901
-0.58050001 -2.1208172 0.21744901
-0.58500004 -2.1208172 0.21876301
-0.58949995 -2.1208172 0.219201
-0.59399998 -2.1208172 0.220296
-0.59850001 -2.1208172 0.22051501
-0.60299999 -2.1208172 0.21985801
-0.60750002 -2.1208172 0.219201
-0.61200005 -2.1208172 0.218982
-0.61649996 -2.1208172 0.21876301
-0.62099999 -2.1208172 0.219201
-0.62550002 -2.1208172 0.218982
-0.63 -2.1208172 0.219639
-0.63450003 -2.1208172 0.21942
-0.639 -2.1208172 0.21985801
-0.64349997 -2.1208172 0.21985801
-0.648 -2.1208172 0.22051501
-0.65249997 -2.1208172 0.21985801
-0.65700001 -2.1208172 0.21942
-0.66150004 -2.1208172 0.22007699
-0.66600001 -2.1208172 0.22051501
-0.67049998 -2.1208172 0.220296
-0.67500001 -2.1208172 0.21985801
-0.67949998 -2.1208172 0.22161001
-0.68400002 -2.1208172 0.22139099
-0.68849999 -2.1208172 0.22139099
-0.69300002 -2.1208172 0.22117199
-0.69749999 -2.1208172 0.220953
-0.70199996 -2.1208172 0.22007699
-0.70649999 -2.1208172 0.22007699
-0.71100003 -2.1208172 0.220953
-0.7155 -2.1208172 0.22007699
-0.72000003 -2.1208172 0.21854401
-0.7245 -2.1208172 0.21942
-0.72899997 -2.1208172 0.220734
-0.7335 -2.1208172 0.22139099
-0.73799998 -2.1208172 0.220953
-0.74250001 -2.1208172 0.219639
-0.74700004 -2.1208172 0.220734
-0.75150001 -2.1208172 0.22161001
-0.75599998 -2.1208172 0.22161001
-0.76050001 -2.1208172 0.221829
-0.76499999 -2.1208172 0.22161001
-0.76950002 -2.1208172 0.22117199
-0.77400005 -2.1208172 0.220734
-0.77849996 -2.1208172 0.22270501
-0.78299999 -2.1208172 0.22292399
-0.78749996 -2.1208172 0.220953
-0.792 -2.1208172 0.22139099
-0.79650003 -2.1208172 0.221829
-0.801 -2.1208172 0.22161001
-0.80550003 -2.1208172 0.222048
-0.81 -2.1208172 0.223581
-0.81449997 -2.1208172 0.223362
-0.81900001 -2.1208172 0.22117199
-0.82350004 -2.1208172 0.222267
-0.82800001 -2.1208172 0.224895
-0.83249998 -2.1208172 0.22270501
-0.83699995 -2.1208172 0.222267
-0.84149998 -2.1208172 0.223362
-0.84600002 -2.1208172 0.2238
-0.85049999 -2.1208172 0.22292399
-0.85500002 -2.1208172 0.22161001
-0.85950005 -2.1208172 0.220734
-0.86399996 -2.1208172 0.22051501
-0.86849999 -2.1208172 0.221829
-0.87300003 -2.1208172 0.22051501
-0.8775 -2.1208172 0.221829
-0.88200003 -2.1208172 0.223143
-0.8865 -2.1208172 0.22401901
-0.89099997 -2.1208172 0.22467601
-0.8955 -2.1208172 0.22401901
-0.89999998 -2.1208172 0.2238
-0.90450001 -2.1208172 0.22467601
-0.90900004 -2.1208172 0.22577101
-0.91350001 -2.1208172 0.22533299
-0.91799998 -2.1208172 0.22467601
-0.92250001 -2.1208172 0.22599
-0.92699999 -2.1208172 0.22577101
-0.93150002 -2.1208172 0.22555199
-0.93599999 -2.1208172 0.22401901
-0.94050002 -2.1208172 0.223581
-0.94499999 -2.1208172 0.2238
-0.94949996 -2.1208172 0.2238
-0.95400006 -2.1208172 0.223362
-0.95850003 -2.1208172 0.22467601
-0.963 -2.1208172 0.22555199
-0.96749997 -2.1208172 0.22708499
-0.972 -2.1208172 0.22708499
-0.97649997 -2.1208172 0.230589
-0.98099995 -2.1208172 0.232779
-0.98550004 -2.1208172 0.23737802
-0.99000001 -2.1208172 0.24066299
-1.3275 -2.1208172 0.255555
-1.332 -2.1208172 0.25643101
-1.341 -2.1208172 0.25708801
-1.35 -2.1208172 0.25599298
-1.3545001 -2.1208172 0.25489801
-1.359 -2.1208172 0.25467899
-1.3635 -2.1208172 0.25467899
-1.368 -2.1208172 0.25533599
-1.3724999 -2.1208172 0.25489801
-1.377 -2.1208172 0.25336501
-1.3815 -2.1208172 0.251394
-1.386 -2.1208172 0.24832799
-1.3904999 -2.1208172 0.247233
-1.395 -2.1208172 0.245919
-1.3995 -2.1208172 0.24329099
-1.4039999 -2.1208172 0.24022502
1.9710001 -2.0927269 0.124374
1.9665 -2.0927269 0.123936
1.9619999 -2.0927269 0.12525
1.944 -2.0927269 0.126783
1.9395 -2.0927269 0.12327901
1.9349999 -2.0927269 0.122403
1.9305 -2.0927269 0.121746
1.512 -2.0927269 0.139047
1.5075001 -2.0927269 0.13839
1.503 -2.0927269 0.13729501
1.4985 -2.0927269 0.13598099
1.4940001 -2.0927269 0.135543
1.4894999 -2.0927269 0.133572
1.485 -2.0927269 0.132696
1.4805 -2.0927269 0.13160101
1.476 -2.0927269 0.130725
1.4715 -2.0927269 0.130944
1.467 -2.0927269 0.130944
1.4625 -2.0927269 0.13028701
1.4579999 -2.0927269 0.13050599
1.4535 -2.0927269 0.12984899
1.449 -2.0927269 0.12919201
1.4445 -2.0927269 0.12897301
1.4400001 -2.0927269 0.128097
0.18449999 -2.0927269 0.19116899
0.18000001 -2.0927269 0.18832201
0.17549999 -2.0927269 0.187884
0.171 -2.0927269 0.18832201
0.1665 -2.0927269 0.187884
0.162 -2.0927269 0.190074
0.1575 -2.0927269 0.190074
0.15300001 -2.0927269 0.18985499
0.1485 -2.0927269 0.18985499
0.14400001 -2.0927269 0.18963601
0.13950001 -2.0927269 0.188979
0.13499999 -2.0927269 0.190074
0.1305 -2.0927269 0.18985499
0.126 -2.0927269 0.18876
0.1215 -2.0927269 0.18963601
0.117 -2.0927269 0.18963601
0.1125 -2.0927269 0.188979
0.108 -2.0927269 0.189417
0.1035 -2.0927269 0.190512
0.098999999 -2.0927269 0.18985499
0.094499998 -2.0927269 0.18963601
0.090000004 -2.0927269 0.190074
0.085500002 -2.0927269 0.190731
0.081 -2.0927269 0.190512
0.076500006 -2.0927269 0.189417
0.072000004 -2.0927269 0.190074
0.067499995 -2.0927269 0.18985499
0.063000001 -2.0927269 0.188541
0.058499999 -2.0927269 0.18919799
0.053999998 -2.0927269 0.189417
0.0495 -2.0927269 0.190074
0.045000002 -2.0927269 0.190074
0.0405 -2.0927269 0.189417
0.036000002 -2.0927269 0.18919799
0.031500001 -2.0927269 0.18985499
0.026999999 -2.0927269 0.188979
0.022500001 -2.0927269 0.190512
0.018000001 -2.0927269 0.19094999
0.013499999 -2.0927269 0.189417
0.0090000005 -2.0927269 0.18963601
0.0045000003 -2.0927269 0.18985499
-0 -2.0927269 0.18985499
-0.0045000003 -2.0927269 0.18985499
-0.0090000005 -2.0927269 0.18876
-0.013499999 -2.0927269 0.187884
-0.018000001 -2.0927269 0.18832201
-0.022500001 -2.0927269 0.188541
-0.026999999 -2.0927269 0.188979
-0.031500001 -2.0927269 0.190074
-0.036000002 -2.0927269 0.19029301
-0.0405 -2.0927269 0.18985499
-0.045000002 -2.0927269 0.190074
-0.0495 -2.0927269 0.190731
-0.053999998 -2.0927269 0.19094999
-0.058499999 -2.0927269 0.19138801
-0.063000001 -2.0927269 0.18985499
-0.067499995 -2.0927269 0.188541
-0.072000004 -2.0927269 0.19094999
-0.076500006 -2.0927269 0.190731
-0.081 -2.0927269 0.190512
-0.085500002 -2.0927269 0.191607
-0.090000004 -2.0927269 0.19094999
-0.094499998 -2.0927269 0.190512
-0.098999999 -2.0927269 0.190074
-0.1035 -2.0927269 0.18876
-0.108 -2.0927269 0.18919799
-0.1125 -2.0927269 0.19138801
-0.117 -2.0927269 0.191607
-0.1215 -2.0927269 0.191607
-0.126 -2.0927269 0.190074
-0.1305 -2.0927269 0.19116899
-0.13499999 -2.0927269 0.19138801
-0.13950001 -2.0927269 0.190512
-0.14400001 -2.0927269 0.18985499
-0.1485 -2.0927269 0.18985499
-0.15300001 -2.0927269 0.19094999
-0.1575 -2.0927269 0.19094999
-0.162 -2.0927269 0.191826
-0.1665 -2.0927269 0.19401599
-0.171 -2.0927269 0.200148
-0.17549999 -2.0927269 0.205623
-0.22050001 -2.0927269 0.21153601
-0.22499999 -2.0927269 0.21175499
-0.243 -2.0927269 0.21284999
-0.2475 -2.0927269 0.21328801
-0.252 -2.0927269 0.212631
-0.25650001 -2.0927269 0.213507
-0.26100001 -2.0927269 0.211317
-0.26550001 -2.0927269 0.21306899
-0.26999998 -2.0927269 0.21306899
-0.27450001 -2.0927269 0.213726
-0.27900001 -2.0927269 0.213507
-0.28349999 -2.0927269 0.213507
-0.28800002 -2.0927269 0.213726
-0.29250002 -2.0927269 0.21328801
-0.29699999 -2.0927269 0.21416399
-0.30149999 -2.0927269 0.21569701
-0.30600002 -2.0927269 0.21306899
-0.3105 -2.0927269 0.21504
-0.315 -2.0927269 0.21416399
-0.3195 -2.0927269 0.21504
-0.324 -2.0927269 0.21438301
-0.3285 -2.0927269 0.21460201
-0.333 -2.0927269 0.21591599
-0.33750001 -2.0927269 0.216573
-0.34200001 -2.0927269 0.216135
-0.34650001 -2.0927269 0.215478
-0.35099998 -2.0927269 0.214821
-0.35550001 -2.0927269 0.21701099
-0.36000001 -2.0927269 0.213945
-0.36449999 -2.0927269 0.21591599
-0.36899999 -2.0927269 0.21504
-0.37350002 -2.0927269 0.21438301
-0.37799999 -2.0927269 0.215478
-0.38249999 -2.0927269 0.21591599
-0.38700002 -2.0927269 0.21569701
-0.3915 -2.0927269 0.216573
-0.396 -2.0927269 0.214821
-0.4005 -2.0927269 0.21722999
-0.405 -2.0927269 0.216573
-0.4095 -2.0927269 0.216573
-0.414 -2.0927269 0.21635401
-0.41849998 -2.0927269 0.21438301
-0.42300001 -2.0927269 0.21438301
-0.42750001 -2.0927269 0.216135
-0.43199998 -2.0927269 0.21722999
-0.43650001 -2.0927269 0.217887
-0.44100001 -2.0927269 0.217668
-0.44549999 -2.0927269 0.216792
-0.44999999 -2.0927269 0.21876301
-0.45450002 -2.0927269 0.21744901
-0.45899999 -2.0927269 0.216573
-0.46349999 -2.0927269 0.21701099
-0.46799999 -2.0927269 0.21744901
-0.4725 -2.0927269 0.218106
-0.47700003 -2.0927269 0.21744901
-0.4815 -2.0927269 0.216792
-0.486 -2.0927269 0.218106
-0.49049997 -2.0927269 0.218106
-0.495 -2.0927269 0.21722999
-0.49950001 -2.0927269 0.217887
-0.50400001 -2.0927269 0.21985801
-0.50849998 -2.0927269 0.21876301
-0.51300001 -2.0927269 0.216573
-0.51749998 -2.0927269 0.21635401
-0.52200001 -2.0927269 0.21722999
-0.52650005 -2.0927269 0.217668
-0.53100002 -2.0927269 0.217887
-0.53549999 -2.0927269 0.218982
-0.53999996 -2.0927269 0.21854401
-0.54449999 -2.0927269 0.217887
-0.54900002 -2.0927269 0.217887
-0.5535 -2.0927269 0.21591599
-0.55800003 -2.0927269 0.216135
-0.5625 -2.0927269 0.216573
-0.56699997 -2.0927269 0.21722999
-0.5715 -2.0927269 0.21854401
-0.57600003 -2.0927269 0.21876301
-0.58050001 -2.0927269 0.21832499
-0.58500004 -2.0927269 0.21942
-0.58949995 -2.0927269 0.21985801
-0.59399998 -2.0927269 0.217887
-0.59850001 -2.0927269 0.21832499
-0.60299999 -2.0927269 0.21942
-0.60750002 -2.0927269 0.21985801
-0.61200005 -2.0927269 0.21985801
-0.61649996 -2.0927269 0.21985801
-0.62099999 -2.0927269 0.22051501
-0.62550002 -2.0927269 0.220296
-0.63 -2.0927269 0.219201
-0.63450003 -2.0927269 0.220296
-0.639 -2.0927269 0.220296
-0.64349997 -2.0927269 0.220734
-0.648 -2.0927269 0.21854401
-0.65249997 -2.0927269 0.219201
-0.65700001 -2.0927269 0.21985801
-0.66150004 -2.0927269 0.21985801
-0.66600001 -2.0927269 0.220296
-0.67049998 -2.0927269 0.220734
-0.67500001 -2.0927269 0.22117199
-0.67949998 -2.0927269 0.220953
-0.68400002 -2.0927269 0.220296
-0.68849999 -2.0927269 0.221829
-0.69300002 -2.0927269 0.222048
-0.69749999 -2.0927269 0.222048
-0.70199996 -2.0927269 0.22248599
-0.70649999 -2.0927269 0.222267
-0.71100003 -2.0927269 0.22139099
-0.7155 -2.0927269 0.22139099
-0.72000003 -2.0927269 0.221829
-0.7245 -2.0927269 0.22248599
-0.72899997 -2.0927269 0.22139099
-0.7335 -2.0927269 0.22139099
-0.73799998 -2.0927269 0.220953
-0.74250001 -2.0927269 0.22139099
-0.74700004 -2.0927269 0.22161001
-0.75150001 -2.0927269 0.220953
-0.75599998 -2.0927269 0.220734
-0.76050001 -2.0927269 0.221829
-0.76499999 -2.0927269 0.222267
-0.76950002 -2.0927269 0.223581
-0.77400005 -2.0927269 0.22270501
-0.77849996 -2.0927269 0.221829
-0.78299999 -2.0927269 0.220296
-0.78749996 -2.0927269 0.221829
-0.792 -2.0927269 0.222048
-0.79650003 -2.0927269 0.222048
-0.801 -2.0927269 0.222048
-0.80550003 -2.0927269 0.22161001
-0.81 -2.0927269 0.221829
-0.81449997 -2.0927269 0.22270501
-0.81900001 -2.0927269 0.223362
-0.82350004 -2.0927269 0.223362
-0.82800001 -2.0927269 0.223143
-0.83249998 -2.0927269 0.222048
-0.83699995 -2.0927269 0.22270501
-0.84149998 -2.0927269 0.223362
-0.84600002 -2.0927269 0.223581
-0.85049999 -2.0927269 0.223143
-0.85500002 -2.0927269 0.22292399
-0.85950005 -2.0927269 0.223362
-0.86399996 -2.0927269 0.22248599
-0.86849999 -2.0927269 0.223362
-0.87300003 -2.0927269 0.22292399
-0.8775 -2.0927269 0.223581
-0.88200003 -2.0927269 0.2238
-0.8865 -2.0927269 0.22467601
-0.89099997 -2.0927269 0.224895
-0.8955 -2.0927269 0.224895
-0.89999998 -2.0927269 0.22467601
-0.90450001 -2.0927269 0.22401901
-0.90900004 -2.0927269 0.223362
-0.91350001 -2.0927269 0.22401901
-0.91799998 -2.0927269 0.224895
-0.92250001 -2.0927269 0.22533299
-0.92699999 -2.0927269 0.224895
-0.93150002 -2.0927269 0.22467601
-0.93599999 -2.0927269 0.22467601
-0.94050002 -2.0927269 0.22664699
-0.94499999 -2.0927269 0.22971299
-0.94949996 -2.0927269 0.23387399
-0.95400006 -2.0927269 0.24000598
-1.4220001 -2.0927269 0.25949699
-1.4265 -2.0927269 0.25446001
-1.431 -2.0927269 0.25117499
-1.4355 -2.0927269 0.24504301
-1.4400001 -2.0927269 0.241758
1.4175 -2.0646367 0.14408399
1.413 -2.0646367 0.13992299
1.4085001 -2.0646367 0.136638
1.4039999 -2.0646367 0.135105
1.3995 -2.0646367 0.132477
1.395 -2.0646367 0.13203901
1.3904999 -2.0646367 0.13160101
1.386 -2.0646367 0.130068
1.3815 -2.0646367 0.129411
0.18449999 -2.0646367 0.19029301
0.18000001 -2.0646367 0.18963601
0.17549999 -2.0646367 0.18963601
0.171 -2.0646367 0.190074
0.1665 -2.0646367 0.19029301
0.162 -2.0646367 0.189417
0.1575 -2.0646367 0.19029301
0.15300001 -2.0646367 0.18919799
0.1485 -2.0646367 0.190074
0.14400001 -2.0646367 0.19029301
0.13950001 -2.0646367 0.190512
0.13499999 -2.0646367 0.190074
0.1305 -2.0646367 0.190731
0.126 -2.0646367 0.19094999
0.1215 -2.0646367 0.188541
0.117 -2.0646367 0.18876
0.1125 -2.0646367 0.19029301
0.108 -2.0646367 0.188541
0.1035 -2.0646367 0.18810299
0.098999999 -2.0646367 0.18963601
0.094499998 -2.0646367 0.190512
0.090000004 -2.0646367 0.189417
0.085500002 -2.0646367 0.18810299
0.081 -2.0646367 0.188541
0.076500006 -2.0646367 0.189417
0.072000004 -2.0646367 0.18876
0.067499995 -2.0646367 0.18876
0.063000001 -2.0646367 0.18985499
0.058499999 -2.0646367 0.18985499
0.053999998 -2.0646367 0.18985499
0.0495 -2.0646367 0.188979
0.045000002 -2.0646367 0.190074
0.0405 -2.0646367 0.19116899
0.036000002 -2.0646367 0.19029301
0.031500001 -2.0646367 0.189417
0.026999999 -2.0646367 0.190512
0.022500001 -2.0646367 0.190074
0.018000001 -2.0646367 0.190074
0.013499999 -2.0646367 0.18876
0.0090000005 -2.0646367 0.189417
0.0045000003 -2.0646367 0.18876
-0 -2.0646367 0.18919799
-0.0045000003 -2.0646367 0.18985499
-0.0090000005 -2.0646367 0.18985499
-0.013499999 -2.0646367 0.190512
-0.018000001 -2.0646367 0.190731
-0.022500001 -2.0646367 0.18876
-0.026999999 -2.0646367 0.18919799
-0.031500001 -2.0646367 0.18919799
-0.036000002 -2.0646367 0.18985499
-0.0405 -2.0646367 0.18963601
-0.045000002 -2.0646367 0.190074
-0.0495 -2.0646367 0.18963601
-0.053999998 -2.0646367 0.188979
-0.058499999 -2.0646367 0.18963601
-0.063000001 -2.0646367 0.189417
-0.067499995 -2.0646367 0.190512
-0.072000004 -2.0646367 0.18963601
-0.076500006 -2.0646367 0.18963601
-0.081 -2.0646367 0.189417
-0.085500002 -2.0646367 0.18963601
-0.090000004 -2.0646367 0.190512
-0.094499998 -2.0646367 0.18985499
-0.098999999 -2.0646367 0.18832201
-0.1035 -2.0646367 0.18876
-0.108 -2.0646367 0.19138801
-0.1125 -2.0646367 0.191826
-0.117 -2.0646367 0.190512
-0.1215 -2.0646367 0.19029301
-0.126 -2.0646367 0.189417
-0.1305 -2.0646367 0.18919799
-0.14400001 -2.0646367 0.18985499
-0.1485 -2.0646367 0.19138801
-0.15300001 -2.0646367 0.19094999
-0.1575 -2.0646367 0.19116899
-0.162 -2.0646367 0.19248301
-0.1665 -2.0646367 0.19511099
-0.171 -2.0646367 0.19927199
-0.17549999 -2.0646367 0.206937
-0.21599999 -2.0646367 0.21219301
-0.22499999 -2.0646367 0.21175499
-0.23850001 -2.0646367 0.212412
-0.243 -2.0646367 0.21197399
-0.2475 -2.0646367 0.212631
-0.252 -2.0646367 0.21197399
-0.25650001 -2.0646367 0.21328801
-0.26100001 -2.0646367 0.213507
-0.26550001 -2.0646367 0.213945
-0.26999998 -2.0646367 0.21328801
-0.27450001 -2.0646367 0.21306899
-0.27900001 -2.0646367 0.213726
-0.28349999 -2.0646367 0.21460201
-0.28800002 -2.0646367 0.214821
-0.29250002 -2.0646367 0.213945
-0.29699999 -2.0646367 0.21306899
-0.30149999 -2.0646367 0.213507
-0.30600002 -2.0646367 0.21504
-0.3105 -2.0646367 0.214821
-0.315 -2.0646367 0.213507
-0.3195 -2.0646367 0.214821
-0.324 -2.0646367 0.21460201
-0.3285 -2.0646367 0.215478
-0.333 -2.0646367 0.216135
-0.33750001 -2.0646367 0.21438301
-0.34200001 -2.0646367 0.212631
-0.34650001 -2.0646367 0.21328801
-0.35099998 -2.0646367 0.21460201
-0.35550001 -2.0646367 0.21306899
-0.36000001 -2.0646367 0.21438301
-0.36449999 -2.0646367 0.213945
-0.36899999 -2.0646367 0.21504
-0.37350002 -2.0646367 0.21591599
-0.37799999 -2.0646367 0.21635401
-0.38249999 -2.0646367 0.21460201
-0.38700002 -2.0646367 0.212631
-0.3915 -2.0646367 0.21460201
-0.396 -2.0646367 0.215478
-0.4005 -2.0646367 0.21460201
-0.405 -2.0646367 0.21504
-0.4095 -2.0646367 0.215478
-0.414 -2.0646367 0.21569701
-0.41849998 -2.0646367 0.21591599
-0.42300001 -2.0646367 0.216135
-0.42750001 -2.0646367 0.21504
-0.43199998 -2.0646367 0.21416399
-0.43650001 -2.0646367 0.21569701
-0.44100001 -2.0646367 0.216573
-0.44549999 -2.0646367 0.216792
-0.44999999 -2.0646367 0.21744901
-0.45450002 -2.0646367 0.21438301
-0.45899999 -2.0646367 0.217668
-0.46349999 -2.0646367 0.21832499
-0.46799999 -2.0646367 0.21722999
-0.4725 -2.0646367 0.21591599
-0.47700003 -2.0646367 0.21591599
-0.4815 -2.0646367 0.216792
-0.486 -2.0646367 0.216792
-0.49049997 -2.0646367 0.21832499
-0.495 -2.0646367 0.21832499
-0.49950001 -2.0646367 0.21876301
-0.50400001 -2.0646367 0.21701099
-0.50849998 -2.0646367 0.21832499
-0.51300001 -2.0646367 0.21876301
-0.51749998 -2.0646367 0.21876301
-0.52200001 -2.0646367 0.218106
-0.52650005 -2.0646367 0.21744901
-0.53100002 -2.0646367 0.21701099
-0.53549999 -2.0646367 0.21591599
-0.53999996 -2.0646367 0.21701099
-0.54449999 -2.0646367 0.21591599
-0.54900002 -2.0646367 0.21854401
-0.5535 -2.0646367 0.219201
-0.55800003 -2.0646367 0.21854401
-0.5625 -2.0646367 0.217668
-0.56699997 -2.0646367 0.21701099
-0.5715 -2.0646367 0.216573
-0.57600003 -2.0646367 0.21701099
-0.58050001 -2.0646367 0.21722999
-0.58500004 -2.0646367 0.216573
-0.58949995 -2.0646367 0.21722999
-0.59399998 -2.0646367 0.21832499
-0.59850001 -2.0646367 0.21985801
-0.60299999 -2.0646367 0.22007699
-0.60750002 -2.0646367 0.22007699
-0.61200005 -2.0646367 0.22007699
-0.61649996 -2.0646367 0.219639
-0.62099999 -2.0646367 0.21942
-0.62550002 -2.0646367 0.219639
-0.63 -2.0646367 0.21744901
-0.63450003 -2.0646367 0.21832499
-0.639 -2.0646367 0.21876301
-0.64349997 -2.0646367 0.21985801
-0.648 -2.0646367 0.220296
-0.65249997 -2.0646367 0.22051501
-0.65700001 -2.0646367 0.219639
-0.66150004 -2.0646367 0.218982
-0.66600001 -2.0646367 0.21985801
-0.67049998 -2.0646367 0.22117199
-0.67500001 -2.0646367 0.220734
-0.67949998 -2.0646367 0.219201
-0.68400002 -2.0646367 0.21744901
-0.68849999 -2.0646367 0.217668
-0.69300002 -2.0646367 0.218106
-0.69749999 -2.0646367 0.21985801
-0.70199996 -2.0646367 0.22139099
-0.70649999 -2.0646367 0.222267
-0.71100003 -2.0646367 0.22139099
-0.7155 -2.0646367 0.220296
-0.72000003 -2.0646367 0.22007699
-0.7245 -2.0646367 0.22117199
-0.72899997 -2.0646367 0.21854401
-0.7335 -2.0646367 0.221829
-0.73799998 -2.0646367 0.223581
-0.74250001 -2.0646367 0.220953
-0.74700004 -2.0646367 0.22007699
-0.75150001 -2.0646367 0.22007699
-0.75599998 -2.0646367 0.220734
-0.76050001 -2.0646367 0.22139099
-0.76499999 -2.0646367 0.22161001
-0.76950002 -2.0646367 0.221829
-0.77400005 -2.0646367 0.22051501
-0.77849996 -2.0646367 0.220734
-0.78299999 -2.0646367 0.22248599
-0.78749996 -2.0646367 0.222048
-0.792 -2.0646367 0.222048
-0.79650003 -2.0646367 0.222048
-0.801 -2.0646367 0.222048
-0.80550003 -2.0646367 0.22248599
-0.81 -2.0646367 0.22292399
-0.81449997 -2.0646367 0.222048
-0.81900001 -2.0646367 0.22248599
-0.82350004 -2.0646367 0.220953
-0.82800001 -2.0646367 0.22161001
-0.83249998 -2.0646367 0.22248599
-0.83699995 -2.0646367 0.22117199
-0.84149998 -2.0646367 0.220734
-0.84600002 -2.0646367 0.222267
-0.85049999 -2.0646367 0.2238
-0.85500002 -2.0646367 0.223143
-0.85950005 -2.0646367 0.221829
-0.86399996 -2.0646367 0.223362
-0.86849999 -2.0646367 0.22292399
-0.87300003 -2.0646367 0.221829
-0.8775 -2.0646367 0.22533299
-0.88200003 -2.0646367 0.223581
-0.8865 -2.0646367 0.223143
-0.89099997 -2.0646367 0.22423799
-0.8955 -2.0646367 0.22467601
-0.89999998 -2.0646367 0.22467601
-0.90450001 -2.0646367 0.225114
-0.90900004 -2.0646367 0.224457
-0.91350001 -2.0646367 0.2238
-0.91799998 -2.0646367 0.22423799
-0.92250001 -2.0646367 0.223581
-0.92699999 -2.0646367 0.22533299
-0.93150002 -2.0646367 0.227742
-0.93599999 -2.0646367 0.231903
-0.94050002 -2.0646367 0.238473
-1.4400001 -2.0646367 0.260811
-1.4445 -2.0646367 0.25073701
-1.449 -2.0646367 0.24241501
1.3724999 -2.0365462 0.143646
0.55800003 -2.0365462 0.167079
0.189 -2.0365462 0.190731
0.18449999 -2.0365462 0.18985499
0.18000001 -2.0365462 0.190731
0.17549999 -2.0365462 0.190512
0.171 -2.0365462 0.190074
0.1665 -2.0365462 0.18985499
0.162 -2.0365462 0.18963601
0.1575 -2.0365462 0.189417
0.15300001 -2.0365462 0.18963601
0.1485 -2.0365462 0.19094999
0.14400001 -2.0365462 0.18985499
0.13950001 -2.0365462 0.189417
0.13499999 -2.0365462 0.19029301
0.1305 -2.0365462 0.190731
0.126 -2.0365462 0.190074
0.1215 -2.0365462 0.189417
0.117 -2.0365462 0.18919799
0.1125 -2.0365462 0.18985499
0.108 -2.0365462 0.190074
0.1035 -2.0365462 0.188541
0.098999999 -2.0365462 0.18832201
0.094499998 -2.0365462 0.18963601
0.090000004 -2.0365462 0.188979
0.085500002 -2.0365462 0.18876
0.081 -2.0365462 0.18963601
0.076500006 -2.0365462 0.18985499
0.072000004 -2.0365462 0.190074
0.067499995 -2.0365462 0.19029301
0.063000001 -2.0365462 0.18985499
0.058499999 -2.0365462 0.19029301
0.053999998 -2.0365462 0.188979
0.0495 -2.0365462 0.18919799
0.045000002 -2.0365462 0.18985499
0.0405 -2.0365462 0.18985499
0.036000002 -2.0365462 0.18985499
0.031500001 -2.0365462 0.19029301
0.026999999 -2.0365462 0.188979
0.022500001 -2.0365462 0.187665
0.018000001 -2.0365462 0.18963601
0.013499999 -2.0365462 0.189417
0.0090000005 -2.0365462 0.18919799
0.0045000003 -2.0365462 0.19116899
-0 -2.0365462 0.19138801
-0.0045000003 -2.0365462 0.190731
-0.0090000005 -2.0365462 0.19029301
-0.013499999 -2.0365462 0.190731
-0.018000001 -2.0365462 0.19029301
-0.022500001 -2.0365462 0.19116899
-0.026999999 -2.0365462 0.19116899
-0.031500001 -2.0365462 0.18919799
-0.036000002 -2.0365462 0.18963601
-0.0405 -2.0365462 0.190074
-0.045000002 -2.0365462 0.190074
-0.0495 -2.0365462 0.189417
-0.053999998 -2.0365462 0.188979
-0.058499999 -2.0365462 0.188979
-0.063000001 -2.0365462 0.189417
-0.067499995 -2.0365462 0.18985499
-0.072000004 -2.0365462 0.18832201
-0.076500006 -2.0365462 0.18985499
-0.081 -2.0365462 0.19029301
-0.085500002 -2.0365462 0.19094999
-0.090000004 -2.0365462 0.190731
-0.094499998 -2.0365462 0.190074
-0.098999999 -2.0365462 0.18985499
-0.1035 -2.0365462 0.190074
-0.108 -2.0365462 0.19094999
-0.1125 -2.0365462 0.191607
-0.117 -2.0365462 0.190731
-0.126 -2.0365462 0.190074
-0.1305 -2.0365462 0.19116899
-0.13499999 -2.0365462 0.19138801
-0.13950001 -2.0365462 0.19094999
-0.14400001 -2.0365462 0.18985499
-0.1575 -2.0365462 0.190512
-0.1665 -2.0365462 0.190512
-0.171 -2.0365462 0.19664401
-0.17549999 -2.0365462 0.202776
-0.18000001 -2.0365462 0.209565
-0.198 -2.0365462 0.211317
-0.2295 -2.0365462 0.212631
-0.234 -2.0365462 0.21284999
-0.252 -2.0365462 0.21219301
-0.25650001 -2.0365462 0.21197399
-0.26100001 -2.0365462 0.21328801
-0.26550001 -2.0365462 0.21284999
-0.26999998 -2.0365462 0.212631
-0.27450001 -2.0365462 0.213945
-0.27900001 -2.0365462 0.21438301
-0.28349999 -2.0365462 0.21284999
-0.28800002 -2.0365462 0.21197399
-0.29250002 -2.0365462 0.212631
-0.29699999 -2.0365462 0.212631
-0.30149999 -2.0365462 0.21416399
-0.30600002 -2.0365462 0.213726
-0.3105 -2.0365462 0.213726
-0.315 -2.0365462 0.21284999
-0.3195 -2.0365462 0.212412
-0.324 -2.0365462 0.21219301
-0.3285 -2.0365462 0.21219301
-0.333 -2.0365462 0.21328801
-0.33750001 -2.0365462 0.21460201
-0.34200001 -2.0365462 0.21504
-0.34650001 -2.0365462 0.214821
-0.35099998 -2.0365462 0.213945
-0.35550001 -2.0365462 0.215478
-0.36000001 -2.0365462 0.21504
-0.36449999 -2.0365462 0.214821
-0.36899999 -2.0365462 0.213507
-0.37350002 -2.0365462 0.21328801
-0.37799999 -2.0365462 0.21416399
-0.38249999 -2.0365462 0.214821
-0.38700002 -2.0365462 0.21438301
-0.3915 -2.0365462 0.213945
-0.396 -2.0365462 0.21328801
-0.4005 -2.0365462 0.213945
-0.405 -2.0365462 0.213945
-0.4095 -2.0365462 0.21416399
-0.414 -2.0365462 0.21460201
-0.41849998 -2.0365462 0.213945
-0.42300001 -2.0365462 0.213726
-0.42750001 -2.0365462 0.213726
-0.43199998 -2.0365462 0.212631
-0.43650001 -2.0365462 0.213507
-0.44100001 -2.0365462 0.215259
-0.44549999 -2.0365462 0.215259
-0.44999999 -2.0365462 0.21569701
-0.45450002 -2.0365462 0.21569701
-0.45899999 -2.0365462 0.21591599
-0.46349999 -2.0365462 0.214821
-0.46799999 -2.0365462 0.215478
-0.4725 -2.0365462 0.21635401
-0.47700003 -2.0365462 0.21591599
-0.4815 -2.0365462 0.21569701
-0.486 -2.0365462 0.216792
-0.49049997 -2.0365462 0.21744901
-0.495 -2.0365462 0.21591599
-0.49950001 -2.0365462 0.216573
-0.50400001 -2.0365462 0.217887
-0.50849998 -2.0365462 0.21854401
-0.51300001 -2.0365462 0.21876301
-0.51749998 -2.0365462 0.21832499
-0.52200001 -2.0365462 0.21744901
-0.52650005 -2.0365462 0.216573
-0.53100002 -2.0365462 0.21591599
-0.53549999 -2.0365462 0.21591599
-0.53999996 -2.0365462 0.216573
-0.54449999 -2.0365462 0.218106
-0.54900002 -2.0365462 0.218106
-0.5535 -2.0365462 0.218106
-0.55800003 -2.0365462 0.21876301
-0.5625 -2.0365462 0.218106
-0.56699997 -2.0365462 0.217887
-0.5715 -2.0365462 0.21854401
-0.57600003 -2.0365462 0.21854401
-0.58050001 -2.0365462 0.217887
-0.58500004 -2.0365462 0.217887
-0.58949995 -2.0365462 0.217668
-0.59399998 -2.0365462 0.217668
-0.59850001 -2.0365462 0.21832499
-0.60299999 -2.0365462 0.21985801
-0.60750002 -2.0365462 0.218982
-0.61200005 -2.0365462 0.21876301
-0.61649996 -2.0365462 0.21942
-0.62099999 -2.0365462 0.218982
-0.62550002 -2.0365462 0.219639
-0.63 -2.0365462 0.218982
-0.63450003 -2.0365462 0.218982
-0.639 -2.0365462 0.22051501
-0.64349997 -2.0365462 0.21876301
-0.648 -2.0365462 0.21854401
-0.65249997 -2.0365462 0.22007699
-0.65700001 -2.0365462 0.21942
-0.66150004 -2.0365462 0.21832499
-0.66600001 -2.0365462 0.21854401
-0.67049998 -2.0365462 0.21876301
-0.67500001 -2.0365462 0.217668
-0.67949998 -2.0365462 0.21744901
-0.68400002 -2.0365462 0.220296
-0.68849999 -2.0365462 0.219639
-0.69300002 -2.0365462 0.219201
-0.69749999 -2.0365462 0.22007699
-0.70199996 -2.0365462 0.221829
-0.70649999 -2.0365462 0.221829
-0.71100003 -2.0365462 0.220953
-0.7155 -2.0365462 0.22117199
-0.72000003 -2.0365462 0.22248599
-0.7245 -2.0365462 0.22270501
-0.72899997 -2.0365462 0.22139099
-0.7335 -2.0365462 0.220953
-0.73799998 -2.0365462 0.220296
-0.74250001 -2.0365462 0.222048
-0.74700004 -2.0365462 0.221829
-0.75150001 -2.0365462 0.220953
-0.75599998 -2.0365462 0.220953
-0.76050001 -2.0365462 0.221829
-0.76499999 -2.0365462 0.22139099
-0.76950002 -2.0365462 0.222048
-0.77400005 -2.0365462 0.22270501
-0.77849996 -2.0365462 0.22139099
-0.78299999 -2.0365462 0.22161001
-0.78749996 -2.0365462 0.221829
-0.792 -2.0365462 0.222048
-0.79650003 -2.0365462 0.22248599
-0.801 -2.0365462 0.22292399
-0.80550003 -2.0365462 0.22292399
-0.81 -2.0365462 0.222048
-0.81449997 -2.0365462 0.222267
-0.81900001 -2.0365462 0.22292399
-0.82350004 -2.0365462 0.22248599
-0.82800001 -2.0365462 0.22248599
-0.83249998 -2.0365462 0.222267
-0.83699995 -2.0365462 0.22270501
-0.84149998 -2.0365462 0.22292399
-0.84600002 -2.0365462 0.223581
-0.85049999 -2.0365462 0.22401901
-0.85500002 -2.0365462 0.223362
-0.85950005 -2.0365462 0.223362
-0.86399996 -2.0365462 0.22248599
-0.86849999 -2.0365462 0.222267
-0.87300003 -2.0365462 0.22270501
-0.8775 -2.0365462 0.224457
-0.88200003 -2.0365462 0.224457
-0.8865 -2.0365462 0.2238
-0.89099997 -2.0365462 0.22467601
-0.8955 -2.0365462 0.224457
-0.89999998 -2.0365462 0.22423799
-0.90450001 -2.0365462 0.225114
-0.90900004 -2.0365462 0.225114
-0.91350001 -2.0365462 0.223581
-0.91799998 -2.0365462 0.222048
-0.92250001 -2.0365462 0.22423799
-0.92699999 -2.0365462 0.22839899
-0.93150002 -2.0365462 0.233436
-0.93599999 -2.0365462 0.23956801
-1.449 -2.0365462 0.25489801
-1.4535 -2.0365462 0.247233
0.19350001 -2.0084562 0.19248301
0.189 -2.0084562 0.18985499
0.18449999 -2.0084562 0.18963601
0.18000001 -2.0084562 0.190731
0.17549999 -2.0084562 0.19138801
0.171 -2.0084562 0.19116899
0.1665 -2.0084562 0.19029301
0.162 -2.0084562 0.18985499
0.1575 -2.0084562 0.190074
0.15300001 -2.0084562 0.190731
0.1485 -2.0084562 0.190731
0.14400001 -2.0084562 0.190512
0.13950001 -2.0084562 0.188979
0.13499999 -2.0084562 0.187884
0.1305 -2.0084562 0.188979
0.126 -2.0084562 0.19029301
0.1215 -2.0084562 0.190074
0.117 -2.0084562 0.19029301
0.1125 -2.0084562 0.189417
0.108 -2.0084562 0.190731
0.1035 -2.0084562 0.18963601
0.098999999 -2.0084562 0.189417
0.094499998 -2.0084562 0.18963601
0.090000004 -2.0084562 0.190074
0.085500002 -2.0084562 0.190512
0.081 -2.0084562 0.18919799
0.076500006 -2.0084562 0.187884
0.072000004 -2.0084562 0.18985499
0.067499995 -2.0084562 0.190074
0.063000001 -2.0084562 0.18919799
0.058499999 -2.0084562 0.19029301
0.053999998 -2.0084562 0.18963601
0.0495 -2.0084562 0.18963601
0.045000002 -2.0084562 0.188979
0.0405 -2.0084562 0.18810299
0.036000002 -2.0084562 0.18832201
0.031500001 -2.0084562 0.18919799
0.026999999 -2.0084562 0.188541
0.022500001 -2.0084562 0.190731
0.018000001 -2.0084562 0.190512
0.013499999 -2.0084562 0.189417
0.0090000005 -2.0084562 0.190074
0.0045000003 -2.0084562 0.18919799
-0 -2.0084562 0.188979
-0.0045000003 -2.0084562 0.189417
-0.0090000005 -2.0084562 0.190074
-0.013499999 -2.0084562 0.190731
-0.018000001 -2.0084562 0.18985499
-0.022500001 -2.0084562 0.18919799
-0.026999999 -2.0084562 0.188541
-0.031500001 -2.0084562 0.18876
-0.036000002 -2.0084562 0.18876
-0.0405 -2.0084562 0.188541
-0.045000002 -2.0084562 0.18876
-0.0495 -2.0084562 0.18919799
-0.053999998 -2.0084562 0.188979
-0.058499999 -2.0084562 0.188541
-0.063000001 -2.0084562 0.18985499
-0.067499995 -2.0084562 0.190074
-0.072000004 -2.0084562 0.19116899
-0.076500006 -2.0084562 0.18919799
-0.081 -2.0084562 0.188979
-0.085500002 -2.0084562 0.19094999
-0.090000004 -2.0084562 0.191607
-0.094499998 -2.0084562 0.190731
-0.098999999 -2.0084562 0.18919799
-0.1035 -2.0084562 0.18832201
-0.108 -2.0084562 0.18985499
-0.1125 -2.0084562 0.19094999
-0.117 -2.0084562 0.188979
-0.1215 -2.0084562 0.188979
-0.126 -2.0084562 0.18963601
-0.1305 -2.0084562 0.18985499
-0.13499999 -2.0084562 0.19029301
-0.13950001 -2.0084562 0.19029301
-0.1575 -2.0084562 0.191607
-0.162 -2.0084562 0.19116899
-0.1665 -2.0084562 0.192045
-0.171 -2.0084562 0.19642499
-0.17549999 -2.0084562 0.203214
-0.18000001 -2.0084562 0.209565
-0.21599999 -2.0084562 0.212412
-0.22499999 -2.0084562 0.212631
-0.2295 -2.0084562 0.212412
-0.234 -2.0084562 0.212631
-0.23850001 -2.0084562 0.21284999
-0.243 -2.0084562 0.21306899
-0.2475 -2.0084562 0.212412
-0.252 -2.0084562 0.21306899
-0.25650001 -2.0084562 0.21153601
-0.26100001 -2.0084562 0.21284999
-0.26550001 -2.0084562 0.21306899
-0.26999998 -2.0084562 0.212412
-0.27450001 -2.0084562 0.21328801
-0.27900001 -2.0084562 0.213726
-0.28349999 -2.0084562 0.21284999
-0.28800002 -2.0084562 0.21284999
-0.29250002 -2.0084562 0.213507
-0.29699999 -2.0084562 0.213507
-0.30149999 -2.0084562 0.21438301
-0.30600002 -2.0084562 0.21504
-0.3105 -2.0084562 0.213945
-0.315 -2.0084562 0.21328801
-0.3195 -2.0084562 0.21504
-0.324 -2.0084562 0.21504
-0.3285 -2.0084562 0.213507
-0.333 -2.0084562 0.212631
-0.33750001 -2.0084562 0.21306899
-0.34200001 -2.0084562 0.21328801
-0.34650001 -2.0084562 0.212412
-0.35099998 -2.0084562 0.21328801
-0.35550001 -2.0084562 0.21219301
-0.36000001 -2.0084562 0.21306899
-0.36449999 -2.0084562 0.21328801
-0.36899999 -2.0084562 0.21416399
-0.37350002 -2.0084562 0.215478
-0.37799999 -2.0084562 0.215478
-0.38249999 -2.0084562 0.21438301
-0.38700002 -2.0084562 0.213945
-0.3915 -2.0084562 0.21504
-0.396 -2.0084562 0.21438301
-0.4005 -2.0084562 0.214821
-0.405 -2.0084562 0.214821
-0.4095 -2.0084562 0.21504
-0.414 -2.0084562 0.215259
-0.41849998 -2.0084562 0.215259
-0.42300001 -2.0084562 0.21416399
-0.42750001 -2.0084562 0.213507
-0.43199998 -2.0084562 0.21416399
-0.43650001 -2.0084562 0.214821
-0.44100001 -2.0084562 0.21416399
-0.44549999 -2.0084562 0.215478
-0.44999999 -2.0084562 0.21569701
-0.45450002 -2.0084562 0.21591599
-0.45899999 -2.0084562 0.215478
-0.46349999 -2.0084562 0.21635401
-0.46799999 -2.0084562 0.217668
-0.4725 -2.0084562 0.217887
-0.47700003 -2.0084562 0.21635401
-0.4815 -2.0084562 0.21591599
-0.486 -2.0084562 0.21744901
-0.49049997 -2.0084562 0.216792
-0.495 -2.0084562 0.216573
-0.49950001 -2.0084562 0.21569701
-0.50400001 -2.0084562 0.21701099
-0.50849998 -2.0084562 0.21744901
-0.51300001 -2.0084562 0.218106
-0.51749998 -2.0084562 0.217668
-0.52200001 -2.0084562 0.21722999
-0.52650005 -2.0084562 0.216573
-0.53100002 -2.0084562 0.215478
-0.53549999 -2.0084562 0.217668
-0.53999996 -2.0084562 0.21744901
-0.54449999 -2.0084562 0.216792
-0.54900002 -2.0084562 0.216573
-0.5535 -2.0084562 0.215259
-0.55800003 -2.0084562 0.216573
-0.5625 -2.0084562 0.21744901
-0.56699997 -2.0084562 0.21722999
-0.5715 -2.0084562 0.216792
-0.57600003 -2.0084562 0.21744901
-0.58050001 -2.0084562 0.218106
-0.58500004 -2.0084562 0.21985801
-0.58949995 -2.0084562 0.21722999
-0.59399998 -2.0084562 0.217887
-0.59850001 -2.0084562 0.21832499
-0.60299999 -2.0084562 0.218106
-0.60750002 -2.0084562 0.219201
-0.61200005 -2.0084562 0.218982
-0.61649996 -2.0084562 0.219201
-0.62099999 -2.0084562 0.220296
-0.62550002 -2.0084562 0.218982
-0.63 -2.0084562 0.219639
-0.63450003 -2.0084562 0.219201
-0.639 -2.0084562 0.21876301
-0.64349997 -2.0084562 0.219201
-0.648 -2.0084562 0.219639
-0.65249997 -2.0084562 0.219639
-0.65700001 -2.0084562 0.218982
-0.66150004 -2.0084562 0.21854401
