# .PCD v0.7 - Point Cloud Data file format
VERSION 0.7
FIELDS x y z
SIZE 4 4 4
TYPE F F F
COUNT 1 1 1
WIDTH 1648
HEIGHT 1
VIEWPOINT 0 0 0 1 0 0 0
POINTS 1648
DATA ascii
-15.825 -46.817131 95.638199
-19.125 -46.817131 94.214699
-22.575001 -46.817131 96.236801
74.775002 -45.880791 74.643402
71.925003 -45.880791 73.351303
61.875 -45.880791 80.388496
47.325001 -45.880791 85.169998
43.275002 -45.880791 82.447098
34.724998 -45.880791 88.776199
-15.525 -45.880791 95.594398
-18.975 -45.880791 94.214699
-22.424999 -45.880791 96.317101
73.724998 -44.944447 75.249298
70.875 -44.944447 73.8769
62.174999 -44.944447 80.425003
46.875 -44.944447 85.308701
42.525002 -44.944447 82.629601
34.125 -44.944447 88.936798
-15.075 -44.944447 95.528702
-18.225 -44.944447 94.185501
-21.825001 -44.944447 96.280602
72.824997 -44.008106 75.701897
69.974998 -44.008106 74.402496
62.325001 -44.008106 80.461502
46.575001 -44.008106 85.571503
42.674999 -44.008106 82.812103
33.674999 -44.008106 89.214203
-14.775 -44.008106 95.550598
-18.075001 -44.008106 94.185501
-21.375 -44.008106 96.295197
72.224998 -43.071766 76.169098
68.925003 -43.071766 74.862396
62.474998 -43.071766 80.563698
46.125 -43.071766 85.761299
42.075001 -43.071766 82.987297
33.525002 -43.071766 89.236099
-14.175 -43.071766 95.5214
-17.174999 -43.071766 94.170898
-20.924999 -43.071766 96.258698
71.474998 -42.135426 76.585197
68.925003 -42.135426 75.205498
62.174999 -42.135426 80.717003
45.825001 -42.135426 86.009499
41.474998 -42.135426 83.198997
33.075001 -42.135426 89.528099
-13.875 -42.135426 95.550598
-17.174999 -42.135426 94.068703
-20.625 -42.135426 96.265999
71.025002 -41.199085 76.920998
68.025002 -41.199085 75.548599
61.724998 -41.199085 81.023598
45.525002 -41.199085 86.133598
41.474998 -41.199085 83.286598
32.775002 -41.199085 89.644897
-13.425 -41.199085 95.506798
-16.875 -41.199085 94.105202
-20.325001 -41.199085 96.2733
70.574997 -40.262745 77.176498
67.574997 -40.262745 75.767601
61.125 -40.262745 81.308296
45.075001 -40.262745 86.206596
41.474998 -40.262745 83.520203
32.174999 -40.262745 89.8274
-12.975 -40.262745 95.4776
-16.125 -40.262745 94.032204
-19.875 -40.262745 96.346298
70.125 -39.326401 77.5196
67.275002 -39.326401 76.052299
60.525002 -39.326401 81.614899
44.625 -39.326401 86.484001
40.875 -39.326401 83.6297
31.725 -39.326401 89.9953
-12.525 -39.326401 95.448402
-16.275 -39.326401 93.973801
-19.575001 -39.326401 96.258698
69.824997 -38.39006 77.753197
66.525002 -38.39006 76.256699
59.924999 -38.39006 81.921501
44.325001 -38.39006 86.615402
39.974998 -38.39006 83.8414
31.125 -38.39006 90.2873
-12.225 -38.39006 95.441101
-15.525 -38.39006 93.915398
-19.125 -38.39006 96.127296
69.375 -37.45372 78.067101
66.224998 -37.45372 76.577904
59.174999 -37.45372 82.155098
43.875 -37.45372 86.819801
40.275002 -37.45372 83.980103
31.275 -37.45372 90.272697
-11.775 -37.45372 95.411903
-15.225 -37.45372 93.8862
-18.674999 -37.45372 96.200302
68.925003 -36.51738 78.264198
65.925003 -36.51738 76.789597
58.875 -36.51738 82.403297
43.575001 -36.51738 86.958504
39.525002 -36.51738 84.126099
30.674999 -36.51738 90.469803
-11.325 -36.51738 95.375397
-14.025 -36.51738 93.8862
-19.125 -36.51738 96.178398
68.625 -35.581039 78.527
65.625 -35.581039 77.074303
57.974998 -35.581039 82.804802
43.125 -35.581039 87.1483
38.775002 -35.581039 84.286697
30.075001 -35.581039 90.7034
-11.025 -35.581039 95.280502
-14.025 -35.581039 93.878899
-17.924999 -35.581039 96.068901
68.175003 -34.644695 78.819
65.324997 -34.644695 77.337097
57.224998 -34.644695 83.133301
42.674999 -34.644695 87.308899
38.924999 -34.644695 84.491096
29.625 -34.644695 90.893204
-10.575 -34.644695 95.3535
-13.875 -34.644695 93.725601
-17.475 -34.644695 96.127296
67.875 -33.708355 79.023399
65.025002 -33.708355 77.578003
56.474998 -33.708355 83.403397
42.375 -33.708355 87.476799
37.875 -33.708355 84.585999
29.775 -33.708355 90.893204
-10.125 -33.708355 95.251297
-13.125 -33.708355 93.7621
-17.174999 -33.708355 96.1492
67.425003 -32.772015 79.242401
64.275002 -32.772015 77.753197
56.474998 -32.772015 83.520203
41.924999 -32.772015 87.5644
37.724998 -32.772015 84.753899
29.025 -32.772015 91.090302
-9.6750002 -32.772015 95.222099
-12.975 -32.772015 93.681801
-16.725 -32.772015 96.171097
67.125 -31.835674 79.403
63.674999 -31.835674 77.9795
55.575001 -31.835674 83.804901
41.474998 -31.835674 87.827202
37.275002 -31.835674 84.936401
28.575001 -31.835674 91.236298
-9.2250004 -31.835674 95.222099
-12.375 -31.835674 93.601501
-16.424999 -31.835674 96.046997
66.675003 -30.899332 79.695
63.674999 -30.899332 78.205803
55.275002 -30.899332 84.038498
41.174999 -30.899332 87.871002
37.275002 -30.899332 84.980202
28.424999 -30.899332 91.272797
-8.9250002 -30.899332 95.222099
-11.625 -30.899332 93.630699
-15.975 -30.899332 96.090797
66.375 -29.962992 79.943199
63.375 -29.962992 78.366402
54.825001 -29.962992 84.221001
40.724998 -29.962992 88.016998
36.825001 -29.962992 85.184601
27.975 -29.962992 91.455299
-8.3249998 -29.962992 95.149101
-12.075 -29.962992 93.528503
-16.275 -29.962992 96.141899
65.925003 -29.026651 80.169502
62.924999 -29.026651 78.658401
54.375 -29.026651 84.440002
40.424999 -29.026651 88.184898
36.075001 -29.026651 85.367104
27.375 -29.026651 91.601303
-7.875 -29.026651 95.127197
-11.325 -29.026651 93.513901
-15.525 -29.026651 95.995903
65.474998 -28.090309 80.432297
62.025002 -28.090309 78.811699
53.775002 -28.090309 84.673599
39.974998 -28.090309 88.4039
35.625 -28.090309 85.418198
27.225 -28.090309 91.703499
-7.4250002 -28.090309 95.032303
-10.575 -28.090309 93.565002
-16.875 -28.090309 96.222198
65.025002 -27.153969 80.665901
62.174999 -27.153969 79.089104
53.025002 -27.153969 85.024002
39.525002 -27.153969 88.528
35.174999 -27.153969 85.571503
26.625 -27.153969 91.820297
-6.8249998 -27.153969 95.061501
-9.9750004 -27.153969 93.5942
-14.175 -27.153969 95.966698
64.724998 -26.217628 80.848396
61.724998 -26.217628 79.264297
52.575001 -26.217628 85.155403
39.075001 -26.217628 88.622902
34.424999 -26.217628 85.732101
26.174999 -26.217628 91.988197
-6.0749998 -26.217628 94.995796
-9.375 -26.217628 93.616096
-13.125 -26.217628 95.842598
64.275002 -25.281286 81.023598
61.424999 -25.281286 79.497902
52.275002 -25.281286 85.323303
38.775002 -25.281286 88.798103
34.275002 -25.281286 85.870796
26.025 -25.281286 92.024696
-5.3249998 -25.281286 94.835197
-8.4750004 -25.281286 93.696404
-13.575 -25.281286 95.8937
63.974998 -24.344946 81.2864
60.974998 -24.344946 79.651199
51.224998 -24.344946 85.637199
38.325001 -24.344946 88.9076
34.275002 -24.344946 85.958397
25.725 -24.344946 92.119598
-4.2750001 -24.344946 94.689201
-7.875 -24.344946 93.783997
-11.475 -24.344946 95.689301
63.674999 -23.408606 81.512703
60.525002 -23.408606 79.8629
51.224998 -23.408606 85.681
38.025002 -23.408606 89.068199
33.825001 -23.408606 86.075203
25.275 -23.408606 92.280197
-3.075 -23.408606 94.5578
-6.0749998 -23.408606 93.922699
-14.475 -23.408606 96.039703
63.224998 -22.472263 81.600304
60.075001 -22.472263 80.059998
50.924999 -22.472263 85.827003
37.575001 -22.472263 89.177696
33.375 -22.472263 86.170097
24.975 -22.472263 92.360497
-1.875 -22.472263 94.360703
-5.4749999 -22.472263 94.112503
-8.4750004 -22.472263 95.317001
62.924999 -21.535923 81.782799
59.775002 -21.535923 80.184097
50.325001 -21.535923 86.038696
22.424999 -21.535923 92.878799
18.075001 -21.535923 92.470001
-13.425 -21.535923 95.959396
62.474998 -20.599583 81.994499
59.025002 -20.599583 80.439598
50.025002 -20.599583 86.170097
22.275 -20.599583 92.827698
19.875 -20.599583 92.440804
-13.425 -20.599583 95.879097
62.025002 -19.66324 82.220802
58.724998 -19.66324 80.563698
49.275002 -19.66324 86.418297
22.275 -19.66324 92.856903
18.225 -19.66324 92.484596
-13.275 -19.66324 95.871803
61.724998 -18.7269 82.308403
58.424999 -18.7269 80.760803
49.275002 -18.7269 86.498596
22.275 -18.7269 92.900703
18.375 -18.7269 92.484596
-13.725 -18.7269 95.8134
-31.424999 -18.7269 96.528801
-33.525002 -18.7269 96.280602
-39.075001 -18.7269 96.952202
61.275002 -17.79056 82.549301
58.125 -17.79056 80.899498
48.525002 -17.79056 86.659203
22.125 -17.79056 92.791199
19.275 -17.79056 92.484596
-13.875 -17.79056 95.8937
89.025002 -16.854218 67.942001
88.125 -16.854218 67.591599
83.175003 -16.854218 70.9496
60.825001 -16.854218 82.768303
57.525002 -16.854218 81.045502
47.924999 -16.854218 86.892799
21.975 -16.854218 92.805801
18.825001 -16.854218 92.455399
-13.425 -16.854218 95.762299
-29.924999 -16.854218 96.382797
-32.474998 -16.854218 96.141899
-39.224998 -16.854218 96.835403
89.175003 -14.981536 66.168098
88.574997 -14.981536 66.131599
74.625 -14.981536 78.037903
82.875 -14.045195 73.942596
80.925003 -14.045195 72.927902
73.425003 -14.045195 78.505096
59.775002 -14.045195 83.1698
56.174999 -14.045195 81.461601
47.025002 -14.045195 87.170197
20.924999 -14.045195 92.601402
18.674999 -14.045195 92.477303
-8.9250002 -14.045195 95.251297
-28.725 -14.045195 96.214897
-31.424999 -14.045195 95.922897
-37.424999 -14.045195 96.645599
80.775002 -13.108854 75.074097
78.375 -13.108854 73.935303
72.525002 -13.108854 78.8993
59.325001 -13.108854 83.3377
56.025002 -13.108854 81.644096
46.575001 -13.108854 87.389198
-28.275 -13.108854 96.1492
-31.125 -13.108854 95.835297
-37.125 -13.108854 96.536102
79.574997 -12.172513 75.752998
77.175003 -12.172513 74.533897
71.474998 -12.172513 79.337303
59.025002 -12.172513 83.439903
55.275002 -12.172513 81.680603
45.974998 -12.172513 87.513298
-27.975 -12.172513 96.098099
-30.225 -12.172513 95.7696
-36.525002 -12.172513 96.543404
78.675003 -11.236172 76.234802
76.125 -11.236172 75.161697
71.025002 -11.236172 79.505203
58.724998 -11.236172 83.6297
54.974998 -11.236172 81.885002
45.674999 -11.236172 87.579002
32.775002 -11.236172 90.389503
28.575001 -11.236172 87.3162
20.174999 -11.236172 92.513802
-27.525 -11.236172 96.068901
-30.674999 -11.236172 95.747704
-36.375 -11.236172 96.499603
77.625 -10.299831 76.796898
75.675003 -10.299831 75.650803
70.425003 -10.299831 79.753403
58.125 -10.299831 83.768402
54.525002 -10.299831 82.001801
45.224998 -10.299831 87.717697
32.474998 -10.299831 90.5355
27.225 -10.299831 87.389198
19.725 -10.299831 92.4627
-27.225 -10.299831 95.988602
-29.775 -10.299831 95.6455
-35.625 -10.299831 96.419296
76.574997 -9.3634901 77.191101
74.175003 -9.3634901 75.986603
69.375 -9.3634901 80.118401
57.825001 -9.3634901 83.892502
54.525002 -9.3634901 82.0383
44.924999 -9.3634901 87.878304
32.174999 -9.3634901 90.542801
27.674999 -9.3634901 87.411102
19.275 -9.3634901 92.345901
-26.775 -9.3634901 95.915604
-29.625 -9.3634901 95.623596
-35.325001 -9.3634901 96.309799
75.974998 -8.4271488 77.534203
73.574997 -8.4271488 76.395401
68.925003 -8.4271488 80.227898
57.375 -8.4271488 83.958199
54.075001 -8.4271488 82.198898
44.474998 -8.4271488 87.922096
31.575001 -8.4271488 90.696098
27.225 -8.4271488 87.462196
18.975 -8.4271488 92.433502
-26.325001 -8.4271488 95.8937
-28.725 -8.4271488 95.4776
-35.174999 -8.4271488 96.295197
74.925003 -7.490808 77.877296
72.675003 -7.490808 76.665497
68.775002 -7.490808 80.3666
56.924999 -7.490808 84.111504
53.174999 -7.490808 82.301102
44.025002 -7.490808 87.987801
31.275 -7.490808 90.776398
26.174999 -7.490808 87.571701
18.225 -7.490808 92.433502
-26.025 -7.490808 95.776901
-29.325001 -7.490808 95.448402
-34.724998 -7.490808 96.280602
74.324997 -6.5544672 78.235001
72.224998 -6.5544672 76.950203
67.724998 -6.5544672 80.695099
56.625 -6.5544672 84.213699
53.174999 -6.5544672 82.344902
43.724998 -6.5544672 88.089996
30.825001 -6.5544672 90.863998
26.325001 -6.5544672 87.571701
17.924999 -6.5544672 92.280197
-25.424999 -6.5544672 95.674698
-27.525 -6.5544672 95.3097
-34.424999 -6.5544672 96.141899
73.875 -5.6181259 78.410202
71.625 -5.6181259 77.147301
67.724998 -5.6181259 80.775398
56.174999 -5.6181259 84.388901
53.025002 -5.6181259 82.381401
43.575001 -5.6181259 88.1922
30.525 -5.6181259 90.9151
26.174999 -5.6181259 87.637398
17.475 -5.6181259 92.404297
-24.975 -5.6181259 95.594398
-27.375 -5.6181259 95.295097
-34.275002 -5.6181259 96.1054
73.275002 -4.6817851 78.665703
71.324997 -4.6817851 77.359001
67.275002 -4.6817851 80.965202
55.875 -4.6817851 84.447304
52.275002 -4.6817851 82.542
42.525002 -4.6817851 88.345497
30.075001 -4.6817851 91.010002
25.875 -4.6817851 87.673897
17.325001 -4.6817851 92.345901
-24.674999 -4.6817851 95.565201
-26.775 -4.6817851 95.163696
-33.825001 -4.6817851 96.025101
72.824997 -3.7454441 78.848198
70.875 -3.7454441 77.541496
66.675003 -3.7454441 81.060097
56.025002 -3.7454441 84.410797
51.974998 -3.7454441 82.593102
42.525002 -3.7454441 88.352798
29.775 -3.7454441 91.068398
24.674999 -3.7454441 87.695801
16.875 -3.7454441 92.302101
-23.924999 -3.7454441 95.492203
-26.475 -3.7454441 95.090698
-33.075001 -3.7454441 95.922897
72.224998 -2.809103 78.9869
70.275002 -2.809103 77.738602
65.925003 -2.809103 81.337502
56.174999 -2.809103 84.3013
51.525002 -2.809103 82.6661
42.075001 -2.809103 88.374702
29.475 -2.809103 91.061096
24.674999 -2.809103 87.695801
16.575001 -2.809103 92.178001
-23.475 -2.809103 95.375397
-25.725 -2.809103 95.003098
-32.775002 -2.809103 95.886398
71.625 -1.872762 79.315399
69.675003 -1.872762 77.964897
65.324997 -1.872762 81.476196
53.474998 -1.872762 83.856003
51.075001 -1.872762 82.731796
42.075001 -1.872762 88.425797
28.875 -1.872762 91.104897
24.075001 -1.872762 87.768799
15.675 -1.872762 92.265602
-23.325001 -1.872762 95.338898
-25.875 -1.872762 94.908203
-32.625 -1.872762 95.828003
71.175003 -0.93642098 79.373802
69.224998 -0.93642098 78.235001
64.425003 -0.93642098 81.768204
53.025002 -0.93642098 84.410797
50.775002 -0.93642098 82.790199
41.474998 -0.93642098 88.513397
28.575001 -0.93642098 91.1633
23.924999 -0.93642098 87.849098
15.525 -0.93642098 92.207199
-23.025 -0.93642098 95.207497
-25.424999 -0.93642098 94.806
-32.174999 -0.93642098 95.806099
70.724998 -7.9999998e-05 79.658501
68.625 -7.9999998e-05 78.322601
63.974998 -7.9999998e-05 81.899597
53.025002 -7.9999998e-05 84.848801
50.325001 -7.9999998e-05 82.834
41.025002 -7.9999998e-05 88.622902
28.125 -7.9999998e-05 91.2071
23.174999 -7.9999998e-05 87.878304
14.925 -7.9999998e-05 92.192596
-22.275 -7.9999998e-05 95.170998
-25.125 -7.9999998e-05 94.733002
-31.725 -7.9999998e-05 95.638199
70.125 0.936261 79.7388
68.025002 0.936261 78.614601
63.525002 0.936261 82.023697
53.174999 0.936261 84.980202
49.575001 0.936261 82.958099
40.724998 0.936261 88.535301
27.674999 0.936261 91.258202
23.325001 0.936261 87.841797
14.775 0.936261 92.236397
-21.825001 0.936261 95.054199
-24.674999 0.936261 94.594299
-31.275 0.936261 95.6017
69.375 1.872602 80.052696
67.574997 1.872602 78.7752
63.224998 1.872602 82.089401
52.875 1.872602 85.235703
49.275002 1.872602 83.031097
39.974998 1.872602 88.703201
27.375 1.872602 91.345802
22.575001 1.872602 87.885597
14.325 1.872602 92.163399
-21.674999 1.872602 94.966599
-25.424999 1.872602 94.506699
-30.825001 1.872602 95.455704
68.925003 2.808943 80.184097
66.675003 2.808943 78.921204
63.075001 2.808943 82.155098
52.575001 2.808943 85.2649
48.974998 2.808943 83.053001
39.525002 2.808943 88.812698
26.924999 2.808943 91.353104
22.275 2.808943 87.907501
14.025 2.808943 92.061203
-21.075001 2.808943 94.864403
-24.674999 2.808943 94.375298
-30.225 2.808943 95.419197
68.324997 3.7452841 80.337402
66.375 3.7452841 79.118301
63.375 3.7452841 82.052902
52.125 3.7452841 85.3452
47.924999 3.7452841 83.1698
39.674999 3.7452841 88.717796
26.475 3.7452841 91.375
21.674999 3.7452841 87.907501
13.425 3.7452841 92.090401
-20.775 3.7452841 94.703796
-23.174999 3.7452841 94.229301
-30.075001 3.7452841 95.287804
67.724998 4.6816249 80.549103
65.925003 4.6816249 79.2351
63.674999 4.6816249 81.972603
51.825001 4.6816249 85.418198
48.075001 4.6816249 83.264702
38.775002 4.6816249 88.82
26.025 4.6816249 91.396896
21.525 4.6816249 87.922096
13.125 4.6816249 92.024696
-20.174999 4.6816249 94.6381
-23.025 4.6816249 94.127098
-29.775 4.6816249 95.149101
67.275002 5.6179662 80.709702
65.175003 5.6179662 79.3592
63.825001 5.6179662 81.936096
51.375 5.6179662 85.542297
48.075001 5.6179662 83.308502
38.474998 5.6179662 88.8638
25.575001 5.6179662 91.411499
20.924999 5.6179662 87.965897
12.375 5.6179662 92.010101
-19.725 5.6179662 94.579697
-22.575001 5.6179662 94.017601
-29.475 5.6179662 95.090698
66.375 6.554307 80.943298
65.324997 6.554307 79.987
63.974998 6.554307 81.760902
57.375 6.554307 83.790298
55.575001 6.554307 82.556602
54.674999 6.554307 84.6371
50.924999 6.554307 85.608002
47.174999 6.554307 83.374199
38.174999 6.554307 88.966003
25.125 6.554307 91.491798
20.475 6.554307 88.031601
11.625 6.554307 92.024696
-19.275 6.554307 94.397202
-21.975 6.554307 93.864304
-28.875 6.554307 95.032303
57.525002 7.4906478 83.739197
55.724998 7.4906478 82.505501
54.525002 7.4906478 84.651703
50.474998 7.4906478 85.695602
46.875 7.4906478 83.388802
37.724998 7.4906478 89.002502
24.525 7.4906478 91.484497
19.275 7.4906478 88.148399
11.025 7.4906478 92.068497
-18.674999 7.4906478 94.324203
-21.975 7.4906478 93.776703
-28.725 7.4906478 94.900902
57.674999 8.4269886 83.644302
55.875 8.4269886 82.498199
54.525002 8.4269886 84.615196
50.174999 8.4269886 85.739403
45.974998 8.4269886 83.498299
37.125 8.4269886 89.082802
23.775 8.4269886 91.5429
19.575001 8.4269886 88.3601
9.8249998 8.4269886 92.083099
-18.525 8.4269886 94.273102
-21.075001 8.4269886 93.608803
-28.125 8.4269886 94.776802
57.825001 9.3633299 83.571297
55.875 9.3633299 82.352203
54.525002 9.3633299 84.564102
49.724998 9.3633299 85.797798
46.125 9.3633299 83.5056
36.674999 9.3633299 89.112
22.875 9.3633299 91.594002
18.375 9.3633299 88.5718
8.625 9.3633299 92.105003
-18.075001 9.3633299 94.0979
-21.075001 9.3633299 93.499298
-27.825001 9.3633299 94.586998
82.724998 10.299671 73.497299
82.125 10.299671 72.978996
71.474998 10.299671 79.257004
57.974998 10.299671 83.512901
55.875 10.299671 82.169701
54.525002 10.299671 84.491096
49.275002 10.299671 85.900002
45.674999 10.299671 83.542099
36.224998 10.299671 89.163101
22.575001 10.299671 91.623199
17.174999 10.299671 88.849197
7.4250002 10.299671 92.163399
-17.775 10.299671 94.061401
-21.075001 10.299671 93.389801
-27.525 10.299671 94.572403
80.175003 11.236012 75.212799
76.875 11.236012 74.365997
70.574997 11.236012 79.563599
58.125 11.236012 83.410698
56.174999 11.236012 82.1259
54.674999 11.236012 84.483803
48.825001 11.236012 85.900002
45.075001 11.236012 83.556702
36.075001 11.236012 89.133904
20.025 11.236012 91.382301
15.825 11.236012 89.272598
7.2750001 11.236012 92.1269
-17.475 11.236012 93.864304
-21.225 11.236012 93.229202
-27.075001 11.236012 94.441002
78.224998 12.172353 76.103401
74.625 12.172353 75.125198
69.675003 12.172353 79.775299
58.125 12.172353 83.3377
56.325001 12.172353 82.111298
54.825001 12.172353 84.403503
48.525002 12.172353 85.951103
44.775002 12.172353 83.622398
35.775002 12.172353 89.192299
17.924999 12.172353 92.075798
14.925 12.172353 89.8274
7.5749998 12.172353 91.951698
-16.875 12.172353 93.769402
-19.725 12.172353 93.0905
-26.625 12.172353 94.360703
76.724998 13.108694 76.658203
73.425003 13.108694 75.585098
68.474998 13.108694 80.1549
58.275002 13.108694 83.198997
56.474998 13.108694 82.0821
54.674999 13.108694 84.323196
48.075001 13.108694 86.111702
44.474998 13.108694 83.585899
35.174999 13.108694 89.206902
14.925 13.108694 91.5429
12.825 13.108694 90.7034
2.175 13.108694 92.470001
-16.575001 13.108694 93.638
-20.475 13.108694 92.944504
-26.325001 13.108694 94.1782
75.824997 14.045035 77.074303
72.074997 14.045035 75.993896
67.574997 14.045035 80.4104
58.424999 14.045035 83.220901
56.474998 14.045035 81.972603
54.974998 14.045035 84.293999
47.775002 14.045035 86.104401
43.875 14.045035 83.622398
34.575001 14.045035 89.221497
22.575001 14.045035 91.433403
18.674999 14.045035 91.017303
-1.425 14.045035 92.6744
-16.125 14.045035 93.521202
-19.275 14.045035 92.805801
-26.025 14.045035 94.083298
58.424999 14.981376 83.140602
56.325001 14.981376 81.8339
54.825001 14.981376 84.242897
47.325001 14.981376 86.213898
42.974998 14.981376 83.615097
34.275002 14.981376 89.228798
22.275 14.981376 91.367699
17.924999 14.981376 90.944298
0.97500002 14.981376 92.470001
-15.975 14.981376 93.418999
-18.375 14.981376 92.645203
-25.575001 14.981376 93.988403
73.425003 15.917717 77.928398
70.425003 15.917717 76.577904
66.074997 15.917717 80.7827
58.575001 15.917717 83.104103
56.474998 15.917717 81.819298
54.974998 15.917717 84.162598
46.875 15.917717 86.199303
42.375 15.917717 83.666199
33.674999 15.917717 89.3237
22.275 15.917717 91.323898
18.075001 15.917717 90.907799
0.22499999 15.917717 92.411598
-15.525 15.917717 93.331398
-18.075001 15.917717 92.550301
-25.125 15.917717 93.791298
72.525002 16.854057 78.1474
69.525002 16.854057 76.745796
65.474998 16.854057 80.957901
58.724998 16.854057 83.016502
56.625 16.854057 81.636803
55.125 16.854057 84.140701
46.424999 16.854057 86.294197
42.224998 16.854057 83.695396
33.224998 16.854057 89.272598
21.975 16.854057 91.338501
20.174999 16.854057 90.900497
-2.175 16.854057 92.426201
-15.075 16.854057 93.119698
-17.924999 16.854057 92.382401
-24.825001 16.854057 93.7183
71.775002 17.7904 78.402901
68.625 17.7904 76.9356
68.025002 17.7904 77.081596
58.724998 17.7904 82.9216
56.924999 17.7904 81.600304
54.825001 17.7904 84.1334
46.125 17.7904 86.337997
41.775002 17.7904 83.688103
32.924999 17.7904 89.3237
21.975 17.7904 91.243599
17.775 17.7904 90.812897
1.275 17.7904 92.148804
-14.625 17.7904 92.988297
-17.625 17.7904 92.309402
-24.674999 17.7904 93.586899
71.324997 18.72674 78.512398
68.324997 18.72674 77.0159
64.275002 18.72674 81.249901
58.875 18.72674 82.834
57.075001 18.72674 81.527298
55.125 18.72674 83.9217
45.674999 18.72674 86.381798
41.325001 18.72674 83.637001
32.474998 18.72674 89.309097
21.975 18.72674 91.177902
18.075001 18.72674 90.776398
0.075000003 18.72674 92.112297
-14.325 18.72674 92.827698
-17.174999 18.72674 92.105003
-24.075001 18.72674 93.506599
70.724998 19.66308 78.687599
67.875 19.66308 77.139999
63.674999 19.66308 81.395897
58.875 19.66308 82.797501
56.924999 19.66308 81.337502
55.275002 19.66308 83.885201
45.375 19.66308 86.367203
40.575001 19.66308 83.688103
32.325001 19.66308 89.287201
21.975 19.66308 91.170601
17.775 19.66308 90.5793
0.82499999 19.66308 91.929802
-13.725 19.66308 92.696297
-16.424999 19.66308 91.929802
-23.924999 19.66308 93.3825
70.425003 20.599422 78.782501
66.974998 20.599422 77.125397
65.925003 20.599422 77.388199
59.025002 20.599422 82.636902
57.075001 20.599422 81.2061
55.424999 20.599422 83.768402
44.924999 20.599422 86.345299
40.724998 20.599422 83.637001
31.575001 20.599422 89.352898
21.975 20.599422 91.097603
17.025 20.599422 90.557404
1.425 20.599422 91.798401
-13.275 20.599422 92.594101
-16.424999 20.599422 91.761902
-23.325001 20.599422 93.236504
69.974998 21.535763 78.855499
66.675003 21.535763 77.242203
65.474998 21.535763 77.526901
59.174999 21.535763 82.520103
57.375 21.535763 81.235298
55.575001 21.535763 83.666199
44.474998 21.535763 86.418297
39.974998 21.535763 83.666199
31.275 21.535763 89.345596
21.975 21.535763 90.951599
17.625 21.535763 90.499001
2.175 21.535763 91.688904
-12.975 21.535763 92.4189
-16.275 21.535763 91.630501
-22.875 21.535763 93.032097
69.525002 22.472103 78.891998
66.224998 22.472103 77.300598
64.875 22.472103 77.541496
59.174999 22.472103 82.469002
57.525002 22.472103 81.1623
55.875 22.472103 83.5056
44.025002 22.472103 86.440201
39.825001 22.472103 83.615097
30.825001 22.472103 89.3237
21.975 22.472103 90.885902
17.625 22.472103 90.447899
1.275 22.472103 91.5429
-12.525 22.472103 92.309402
-15.675 22.472103 91.455299
-22.575001 22.472103 92.929901
69.074997 23.408445 78.957703
65.775002 23.408445 77.359001
64.425003 23.408445 77.636398
59.474998 23.408445 82.439796
57.525002 23.408445 80.9506
55.424999 23.408445 83.520203
43.575001 23.408445 86.469398
39.674999 23.408445 83.651604
30.525 23.408445 89.352898
21.975 23.408445 90.710701
18.825001 23.408445 90.367599
2.4749999 23.408445 91.360397
-12.225 23.408445 92.221802
-14.775 23.408445 91.258202
-22.275 23.408445 92.834999
59.474998 24.344786 82.257301
57.525002 24.344786 80.790001
55.724998 24.344786 83.3815
43.125 24.344786 86.527802
39.075001 24.344786 83.615097
29.924999 24.344786 89.411301
-11.925 24.344786 92.031998
-14.775 24.344786 91.126801
-21.825001 24.344786 92.696297
59.474998 25.281128 82.162399
57.825001 25.281128 80.760803
56.025002 25.281128 83.184402
42.825001 25.281128 86.491302
38.474998 25.281128 83.600502
29.625 25.281128 89.389397
-11.625 25.281128 91.864098
-15.075 25.281128 90.988098
-21.375 25.281128 92.550301
59.325001 26.217468 81.965302
57.825001 26.217468 80.607498
55.875 26.217468 83.1698
42.375 26.217468 86.498596
37.724998 26.217468 83.585899
29.025 26.217468 89.345596
-11.025 26.217468 91.681602
-14.475 26.217468 90.842102
-21.075001 26.217468 92.521103
67.425003 27.153809 79.242401
64.275002 27.153809 77.578003
56.325001 27.153809 82.980003
42.075001 27.153809 86.542397
37.575001 27.153809 83.578598
28.875 27.153809 89.301804
-10.575 27.153809 91.521004
-12.975 27.153809 90.652298
-20.625 27.153809 92.3386
67.125 28.090151 79.249702
63.674999 28.090151 77.621803
56.174999 28.090151 82.914299
41.775002 28.090151 86.447502
37.275002 28.090151 83.512901
28.125 28.090151 89.360199
-10.125 28.090151 91.382301
-13.875 28.090151 90.462502
-20.325001 28.090151 92.148804
66.675003 29.026491 79.322701
63.075001 29.026491 77.621803
55.875 29.026491 82.936203
41.174999 29.026491 86.491302
36.825001 29.026491 83.490997
27.825001 29.026491 89.287201
-9.8249998 29.026491 91.302002
-12.825 29.026491 90.294601
-20.025 29.026491 92.061203
66.224998 29.962831 79.395699
62.775002 29.962831 77.5634
56.025002 29.962831 82.790199
40.875 29.962831 86.432899
36.075001 29.962831 83.374199
27.525 29.962831 89.243401
-9.5249996 29.962831 91.090302
-12.825 29.962831 90.112099
-19.725 29.962831 91.849503
65.775002 30.899174 79.403
62.325001 30.899174 77.607201
55.875 30.899174 82.688004
40.424999 30.899174 86.359901
36.075001 30.899174 83.388802
27.225 30.899174 89.228798
-8.7749996 30.899174 90.849403
-11.475 30.899174 89.966103
-19.275 30.899174 91.718102
65.474998 31.835514 79.454102
62.174999 31.835514 77.651001
56.625 31.835514 82.476303
40.125 31.835514 86.389099
35.625 31.835514 83.352303
26.775 31.835514 89.236099
-8.4750004 31.835514 90.849403
-11.325 31.835514 89.842003
-18.975 31.835514 91.521004
64.875 32.771854 79.519798
61.275002 32.771854 77.7313
55.575001 32.771854 82.6661
39.674999 32.771854 86.389099
34.424999 32.771854 83.315804
26.625 32.771854 89.133904
-8.3249998 32.771854 90.688797
-12.075 32.771854 89.644897
-18.375 32.771854 91.433403
64.574997 33.708195 79.607399
61.275002 33.708195 77.702103
55.275002 33.708195 82.644203
39.224998 33.708195 86.381798
34.575001 33.708195 83.250099
25.875 33.708195 89.141197
-6.9749999 33.708195 90.513603
-10.875 33.708195 89.411301
-18.075001 33.708195 91.382301
90.074997 34.644539 65.766602
88.574997 34.644539 65.262901
81.525002 34.644539 70.555397
64.125 34.644539 79.636597
60.974998 34.644539 77.804298
54.825001 34.644539 82.680702
38.775002 34.644539 86.316101
34.275002 34.644539 83.220901
25.725 34.644539 89.148499
-7.2750001 34.644539 90.382202
-10.875 34.644539 89.214203
-17.775 34.644539 91.199799
90.824997 35.580879 65.146103
89.175003 35.580879 64.518303
79.724998 35.580879 71.358398
63.825001 35.580879 79.658501
60.674999 35.580879 77.804298
54.525002 35.580879 82.607697
38.325001 35.580879 86.330704
33.974998 35.580879 83.177101
25.125 35.580879 89.068199
-6.5250001 35.580879 90.1632
-10.725 35.580879 89.097397
-17.325001 35.580879 91.017303
83.025002 36.51722 71.7453
81.375 36.51722 71.044502
74.175003 36.51722 76.212898
63.375 36.51722 79.687698
59.775002 36.51722 77.694801
53.924999 36.51722 82.702599
37.875 36.51722 86.272301
32.924999 36.51722 83.0895
24.975 36.51722 88.973297
-6.5250001 36.51722 90.031799
-10.425 36.51722 88.878403
-16.875 36.51722 90.907799
81.074997 37.45356 72.803802
78.525002 37.45356 71.767197
72.974998 37.45356 76.453796
63.075001 37.45356 79.629303
59.474998 37.45356 77.709396
53.775002 37.45356 82.549301
37.575001 37.45356 86.235802
32.474998 37.45356 82.994598
24.375 37.45356 88.944099
-6.2249999 37.45356 89.9515
-9.2250004 37.45356 88.630203
-16.575001 37.45356 90.7034
79.724998 38.3899 73.446198
77.175003 38.3899 72.292801
71.625 38.3899 76.840698
62.625 38.3899 79.709602
58.875 38.3899 77.702103
53.174999 38.3899 82.724503
-5.7750001 38.3899 89.754402
-9.6750002 38.3899 88.542603
-16.275 38.3899 90.506302
78.525002 39.326241 73.840401
76.125 39.326241 72.672401
70.724998 39.326241 77.037804
62.174999 39.326241 79.716904
58.875 39.326241 77.723999
52.875 39.326241 82.651497
-5.3249998 39.326241 89.637604
-10.275 39.326241 88.389297
-15.825 39.326241 90.338402
77.474998 40.262585 74.271103
75.224998 40.262585 72.978996
70.275002 40.262585 77.1838
61.724998 40.262585 79.7388
57.974998 40.262585 77.665604
52.424999 40.262585 82.629601
76.574997 41.198925 74.570396
74.175003 41.198925 73.344002
69.974998 41.198925 77.118103
61.724998 41.198925 79.775299
57.825001 41.198925 77.636398
52.125 41.198925 82.542
-4.125 41.198925 89.214203
-8.1750002 41.198925 88.272499
-14.925 41.198925 90.053703
75.675003 42.135265 74.752899
73.275002 42.135265 73.475403
69.224998 42.135265 77.234901
61.724998 42.135265 79.622002
57.525002 42.135265 77.629097
51.674999 42.135265 82.6661
-3.675 42.135265 89.112
-8.0249996 42.135265 88.1922
-14.325 42.135265 89.987999
75.074997 43.071606 74.942703
72.675003 43.071606 73.679802
68.474998 43.071606 77.373596
61.875 43.071606 79.417603
56.924999 43.071606 77.592598
51.674999 43.071606 82.520103
-2.7750001 43.071606 88.892998
-6.8249998 43.071606 88.155701
-13.725 43.071606 89.732498
74.324997 44.007946 75.190903
72.224998 44.007946 73.789299
68.324997 44.007946 77.380898
58.875 44.007946 78.870102
56.474998 44.007946 77.585297
51.075001 44.007946 82.527397
-2.0250001 44.007946 88.7397
-8.0249996 44.007946 88.221397
-12.825 44.007946 89.513496
73.875 44.944286 75.278503
71.625 44.944286 73.884201
68.474998 44.944286 77.256798
58.575001 44.944286 79.2789
55.875 44.944286 77.570702
50.474998 44.944286 82.520103
-2.325 44.944286 88.644798
-7.7249999 44.944286 88.184898
-11.925 44.944286 89.287201
73.275002 45.88063 75.336899
71.025002 45.88063 73.993698
68.474998 45.88063 77.096199
58.424999 45.88063 79.585503
55.575001 45.88063 77.556099
50.025002 45.88063 82.483597
-3.2249999 45.88063 88.476898
-7.2750001 45.88063 88.2798
-10.875 45.88063 89.046303
58.575001 46.816971 79.789902
55.275002 46.816971 77.497704
49.575001 46.816971 82.505501
71.775002 47.753311 75.5121
70.724998 47.753311 74.650703
69.074997 47.753311 76.577904
58.424999 47.753311 79.7826
54.825001 47.753311 77.534203
48.825001 47.753311 82.549301
58.125 48.689651 79.826401
54.075001 48.689651 77.468498
48.674999 48.689651 82.505501
18.225 48.689651 87.360001
14.925 48.689651 87.140999
-12.225 48.689651 88.812698
57.674999 49.625992 79.819099
53.775002 49.625992 77.402802
48.525002 49.625992 82.410599
57.375 50.562332 79.665802
53.325001 50.562332 77.359001
47.775002 50.562332 82.454399
56.924999 51.498676 79.731499
52.875 51.498676 77.359001
47.625 51.498676 82.366798
56.474998 52.435017 79.753403
52.575001 52.435017 77.315201
47.325001 52.435017 82.279198
63.075001 53.371357 77.709396
61.125 53.371357 76.329697
60.075001 53.371357 78.753304
56.174999 53.371357 79.680397
52.275002 53.371357 77.249496
46.875 53.371357 82.242699
55.724998 54.307697 79.746101
51.974998 54.307697 77.205704
46.575001 54.307697 82.140503
30.225 54.307697 85.294098
24.975 54.307697 81.797401
17.325001 54.307697 86.403702
55.424999 55.244038 79.643898
51.075001 55.244038 77.110802
46.125 55.244038 82.103996
29.775 55.244038 85.272202
24.674999 55.244038 81.7463
16.575001 55.244038 86.235802
54.974998 56.180382 79.622002
50.924999 56.180382 77.052399
45.825001 56.180382 82.060204
29.475 56.180382 85.155403
24.375 56.180382 81.593002
16.575001 56.180382 86.053299
-25.575001 56.180382 87.432999
-30.975 56.180382 87.0242
-33.974998 56.180382 87.491402
54.525002 57.116722 79.549004
50.174999 57.116722 77.008598
45.224998 57.116722 81.958
29.025 57.116722 85.016701
23.775 57.116722 81.461601
15.675 57.116722 85.951103
-24.825001 57.116722 87.287003
-28.725 57.116722 86.834396
-34.275002 57.116722 87.389198
63.674999 58.053062 76.782303
61.724998 58.053062 75.614304
60.224998 58.053062 77.921097
54.075001 58.053062 79.585503
50.025002 58.053062 76.957497
44.625 58.053062 81.965302
28.424999 58.053062 85.038597
23.475 58.053062 81.439697
15.225 58.053062 85.797798
63.674999 58.989403 76.6436
61.724998 58.989403 75.439102
60.224998 58.989403 77.7313
53.775002 58.989403 79.519798
49.424999 58.989403 76.906403
44.325001 58.989403 81.9142
28.125 58.989403 84.9291
23.025 58.989403 81.359398
14.925 58.989403 85.681
63.825001 59.925743 76.373497
61.724998 59.925743 75.1763
60.224998 59.925743 77.680199
53.325001 59.925743 79.512497
49.275002 59.925743 76.848
44.174999 59.925743 81.848503
27.674999 59.925743 84.921799
21.525 59.925743 81.271797
14.475 59.925743 85.520401
63.825001 60.862083 76.285896
61.875 60.862083 75.0084
60.375 60.862083 77.417397
53.025002 60.862083 79.439499
48.825001 60.862083 76.760399
43.575001 60.862083 81.811996
27.225 60.862083 84.797699
22.275 60.862083 81.176903
14.025 60.862083 85.381699
52.575001 61.798428 79.410301
48.224998 61.798428 76.694702
42.974998 61.798428 81.811996
26.775 61.798428 84.732002
21.375 61.798428 81.060097
13.575 61.798428 85.250298
80.324997 62.734768 69.350899
76.875 62.734768 68.796097
75.375 62.734768 69.0662
63.974998 62.734768 75.935501
62.025002 62.734768 74.6726
60.375 62.734768 77.074303
52.125 62.734768 79.366501
48.224998 62.734768 76.636299
42.825001 62.734768 81.658699
26.475 62.734768 84.571404
20.475 62.734768 81.016296
13.125 62.734768 85.067802
78.074997 63.671108 70.278
74.925003 63.671108 69.336304
73.724998 63.671108 69.591797
64.125 63.671108 75.709198
62.174999 63.671108 74.482803
60.075001 63.671108 77.037804
51.674999 63.671108 79.330002
47.025002 63.671108 76.5998
42.525002 63.671108 81.5784
26.025 63.671108 84.564102
19.875 63.671108 80.884903
12.825 63.671108 84.965599
76.574997 64.607452 70.723297
73.275002 64.607452 69.7743
72.375 64.607452 69.934898
64.125 64.607452 75.482903
62.174999 64.607452 74.176201
60.674999 64.607452 76.716599
51.375 64.607452 79.300797
46.575001 64.607452 76.483002
41.924999 64.607452 81.512703
25.575001 64.607452 84.454597
19.875 64.607452 80.804604
12.375 64.607452 84.834198
-21.674999 64.607452 85.900002
-27.075001 64.607452 85.242996
-31.575001 64.607452 85.943802
63.974998 65.543793 75.460999
62.474998 65.543793 74.103203
60.375 65.543793 76.585197
51.075001 65.543793 79.1548
46.724998 65.543793 76.410004
41.625 65.543793 81.490799
25.275 65.543793 84.4254
20.025 65.543793 80.665901
11.925 65.543793 84.710098
95.625 66.480133 54.641399
94.275002 66.480133 54.429699
92.625 66.480133 56.984699
63.525002 66.480133 75.074097
62.625 66.480133 73.9645
51.075001 66.480133 79.096397
64.574997 67.416473 74.949997
62.625 67.416473 73.650597
60.974998 67.416473 76.037697
50.174999 67.416473 79.081802
45.825001 67.416473 76.271301
40.424999 67.416473 81.439697
24.525 67.416473 84.264801
19.424999 67.416473 80.476097
11.175 67.416473 84.388901
-16.725 67.416473 85.461998
-26.475 67.416473 84.680901
-30.525 67.416473 85.418198
72.224998 68.352814 71.796402
68.474998 68.352814 70.431297
64.875 68.352814 74.723701
49.724998 68.352814 79.038002
45.075001 68.352814 76.205597
40.275002 68.352814 81.242599
24.075001 68.352814 84.140701
18.375 68.352814 80.417702
10.875 68.352814 84.264801
-18.525 68.352814 85.316002
-25.275 68.352814 84.4692
-30.225 68.352814 85.286797
64.125 69.289154 74.533897
62.775002 69.289154 73.285599
60.974998 69.289154 75.767601
49.424999 69.289154 78.957703
44.775002 69.289154 76.059601
39.674999 69.289154 81.271797
23.625 69.289154 84.140701
17.625 69.289154 80.308197
10.275 69.289154 84.067703
-18.075001 69.289154 85.082397
-26.174999 69.289154 84.293999
-29.625 69.289154 85.126198
70.875 70.225494 71.986198
67.275002 70.225494 70.482399
61.275002 70.225494 75.482903
48.825001 70.225494 78.891998
44.474998 70.225494 76.0158
39.525002 70.225494 81.176903
23.025 70.225494 84.031197
17.325001 70.225494 80.227898
9.9750004 70.225494 83.907097
-16.725 70.225494 85.045898
-25.875 70.225494 84.0896
-29.475 70.225494 84.921799
70.275002 71.161835 72.059196
66.525002 71.161835 70.482399
61.424999 71.161835 75.329597
48.525002 71.161835 78.870102
44.025002 71.161835 75.993896
38.924999 71.161835 81.1185
22.725 71.161835 83.870598
17.625 71.161835 80.133003
9.5249996 71.161835 83.870598
-17.625 71.161835 84.790398
-25.725 71.161835 83.907097
-29.174999 71.161835 84.863403
69.824997 72.098175 72.073799
66.525002 72.098175 70.4459
60.974998 72.098175 75.2201
48.075001 72.098175 78.811699
43.875 72.098175 75.869797
38.625 72.098175 81.052803
22.275 72.098175 83.834099
16.725 72.098175 80.169502
8.625 72.098175 83.761101
69.375 73.034515 72.008102
66.074997 73.034515 70.416702
61.275002 73.034515 74.935402
47.775002 73.034515 78.789803
43.275002 73.034515 75.782204
38.325001 73.034515 80.928703
21.674999 73.034515 83.709999
16.424999 73.034515 80.140297
8.0249996 73.034515 83.615097
69.074997 73.970856 71.9935
65.625 73.970856 70.394798
60.674999 73.970856 74.979202
47.325001 73.970856 78.709503
42.974998 73.970856 75.709198
37.724998 73.970856 80.877602
21.525 73.970856 83.607803
15.825 73.970856 80.184097
6.9749999 73.970856 83.520203
68.625 74.907204 71.986198
65.175003 74.907204 70.256104
60.375 74.907204 74.876999
47.025002 74.907204 78.599998
42.224998 74.907204 75.614304
37.275002 74.907204 80.819199
21.375 74.907204 83.498299
15.525 74.907204 80.337402
6.2249999 74.907204 83.366898
-16.725 74.907204 84.184502
-21.825001 74.907204 83.125999
-27.975 74.907204 84.140701
68.175003 75.843544 71.986198
64.875 75.843544 70.205002
59.625 75.843544 74.979202
46.575001 75.843544 78.461304
42.075001 75.843544 75.533997
36.974998 75.843544 80.724297
21.225 75.843544 83.286598
13.725 75.843544 80.4907
4.875 75.843544 83.417999
67.875 76.779884 71.832901
64.574997 76.779884 70.205002
58.875 76.779884 74.942703
46.125 76.779884 78.505096
41.325001 76.779884 75.453697
36.525002 76.779884 80.651299
21.225 76.779884 83.184402
13.275 76.779884 80.738899
4.5749998 76.779884 83.308502
-16.875 76.779884 83.804901
-23.325001 76.779884 82.7537
-27.075001 76.779884 83.819504
67.425003 77.716225 71.810997
64.125 77.716225 70.1539
58.424999 77.716225 74.9646
45.674999 77.716225 78.351799
41.174999 77.716225 75.388
36.224998 77.716225 80.563698
20.924999 77.716225 83.082199
11.625 77.716225 81.133102
5.0250001 77.716225 83.096802
-15.825 77.716225 83.615097
-20.625 77.716225 82.5858
-26.924999 77.716225 83.731903
66.974998 78.652565 71.789101
63.525002 78.652565 70.095497
57.974998 78.652565 74.913498
45.375 78.652565 78.337196
40.875 78.652565 75.3004
35.924999 78.652565 80.468803
14.175 78.652565 82.520103
9.6750002 78.652565 81.760902
4.7249999 78.652565 83.0457
-16.125 78.652565 83.512901
-21.825001 78.652565 82.3741
-26.475 78.652565 83.476402
66.525002 79.588905 71.730698
63.075001 79.588905 70.022499
57.525002 79.588905 74.818604
44.924999 79.588905 78.337196
40.424999 79.588905 75.190903
35.474998 79.588905 80.425003
66.074997 80.525246 71.737999
62.775002 80.525246 69.9422
56.924999 80.525246 74.833199
44.474998 80.525246 78.176598
39.974998 80.525246 75.139801
35.174999 80.525246 80.3228
20.924999 80.525246 82.702599
17.174999 80.525246 82.0383
-0.52499998 80.525246 82.987297
-15.375 80.525246 83.104103
-20.325001 80.525246 82.030998
-25.725 80.525246 83.198997
65.775002 81.461586 71.7015
62.625 81.461586 69.920303
56.474998 81.461586 74.811302
44.174999 81.461586 78.110901
39.825001 81.461586 75.037598
34.575001 81.461586 80.278999
20.775 81.461586 82.556602
15.525 81.461586 81.965302
2.175 81.461586 82.739098
-15.075 81.461586 82.928902
-19.725 81.461586 81.782799
-25.424999 81.461586 82.994598
65.324997 82.397926 71.650398
61.724998 82.397926 69.8619
55.724998 82.397926 74.855103
43.724998 82.397926 78.045197
39.224998 82.397926 74.971901
33.974998 82.397926 80.257103
-14.325 82.397926 82.746399
-21.975 82.397926 81.636803
-24.674999 82.397926 82.812103
64.875 83.334267 71.562798
61.424999 83.334267 69.796204
55.575001 83.334267 74.650703
43.275002 83.334267 77.957603
38.625 83.334267 74.869698
33.974998 83.334267 80.038101
-13.875 83.334267 82.614998
-18.525 83.334267 81.505402
-24.825001 83.334267 82.658798
64.425003 84.270607 71.548203
61.275002 84.270607 69.723198
55.125 84.270607 74.679901
42.825001 84.270607 77.913803
38.325001 84.270607 74.818604
33.224998 84.270607 80.111099
64.125 85.206947 71.4533
60.375 85.206947 69.6502
54.525002 85.206947 74.709099
42.375 85.206947 77.848099
37.875 85.206947 74.745598
33.075001 85.206947 79.957802
63.674999 86.143295 71.467903
60.075001 86.143295 69.635597
54.375 86.143295 74.5485
42.075001 86.143295 77.8554
37.424999 86.143295 74.694504
32.474998 86.143295 79.921303
20.625 86.143295 81.899597
16.875 86.143295 81.374001
0.67500001 86.143295 82.118599
89.324997 88.015976 54.933399
87.675003 88.015976 54.3494
79.275002 88.015976 62.021702
36.674999 88.015976 74.555801
36.075001 88.015976 74.5485
31.424999 88.015976 79.826401
81.224998 88.952316 62.7444
79.125 88.952316 62.313702
77.625 88.952316 62.7006
62.474998 88.952316 71.314598
58.724998 88.952316 69.387398
52.875 88.952316 74.526604
40.724998 88.952316 77.592598
36.224998 88.952316 74.409798
31.424999 88.952316 79.760696
79.875 89.888657 63.576599
77.474998 89.888657 62.853901
71.775002 89.888657 67.832497
62.025002 89.888657 71.2416
58.275002 89.888657 69.350899
52.575001 89.888657 74.4244
40.275002 89.888657 77.570702
35.325001 89.888657 74.3806
30.825001 89.888657 79.651199
-11.775 89.888657 81.614899
-16.125 89.888657 80.330101
-22.275 89.888657 81.753601
78.525002 90.824997 64.379601
76.275002 90.824997 63.306499
75.074997 90.824997 63.627701
61.575001 90.824997 71.226997
58.125 90.824997 69.277901
52.575001 90.824997 74.227303
39.974998 90.824997 77.461197
34.875 90.824997 74.3368
30.525 90.824997 79.629303
-11.625 90.824997 81.549202
-16.125 90.824997 80.118401
-21.975 90.824997 81.614899
77.474998 91.761337 64.569397
75.224998 91.761337 63.6642
69.525002 91.761337 68.285103
61.275002 91.761337 71.132103
57.825001 91.761337 69.1903
51.974998 91.761337 74.176201
39.525002 91.761337 77.380898
35.174999 91.761337 74.198097
29.475 91.761337 79.490601
20.475 91.761337 81.089302
16.125 91.761337 80.592903
3.375 91.761337 81.074699
-11.175 91.761337 81.308296
-15.375 91.761337 79.965103
-21.525 91.761337 81.490799
76.425003 92.697678 65.007401
74.025002 92.697678 63.890499
68.925003 92.697678 68.292397
60.825001 92.697678 71.095596
56.924999 92.697678 69.168404
51.375 92.697678 74.176201
39.075001 92.697678 77.359001
33.974998 92.697678 74.190804
29.625 92.697678 79.424896
-10.875 92.697678 81.125801
-16.125 92.697678 79.760696
-21.075001 92.697678 81.403198
75.375 93.634018 65.226402
72.974998 93.634018 64.116798
68.324997 93.634018 68.321602
60.375 93.634018 71.051804
56.474998 93.634018 69.102699
51.075001 93.634018 74.103203
38.775002 93.634018 77.2714
33.974998 93.634018 74.066704
29.475 93.634018 79.373802
-10.125 93.634018 81.023598
-15.375 93.634018 79.607399
-20.924999 93.634018 81.249901
74.625 94.570358 65.503799
72.675003 94.570358 64.189796
67.724998 94.570358 68.379997
59.924999 94.570358 70.964203
56.325001 94.570358 69.058899
50.625 94.570358 74.0886
38.325001 94.570358 77.2714
33.674999 94.570358 74.008301
28.725 94.570358 79.388397
-9.2250004 94.570358 80.8703
-15.375 94.570358 79.512497
-20.475 94.570358 81.140404
73.724998 95.506699 65.598701
72.074997 95.506699 64.467201
67.425003 95.506699 68.241302
59.474998 95.506699 70.978798
56.025002 95.506699 69.015099
50.025002 95.506699 74.081299
37.875 95.506699 77.1838
32.924999 95.506699 73.928001
28.125 95.506699 79.373802
20.475 95.506699 80.585602
15.225 95.506699 80.096497
4.4250002 95.506699 80.607498
59.174999 96.443047 70.927696
55.424999 96.443047 68.985901
49.275002 96.443047 74.103203
37.424999 96.443047 77.1838
33.224998 96.443047 74.008301
27.975 96.443047 79.293503
20.475 96.443047 80.4907
15.075 96.443047 79.994301
4.2750001 96.443047 80.373901
-8.7749996 96.443047 80.643997
-14.475 96.443047 79.132896
-16.125 96.443047 79.395699
72.675003 97.379387 65.722801
70.125 97.379387 64.306602
66.074997 97.379387 68.489502
58.875 97.379387 70.796303
54.825001 97.379387 68.591698
48.974998 97.379387 74.037498
36.974998 97.379387 77.096199
32.025002 97.379387 73.636002
27.225 97.379387 79.242401
-8.0249996 97.379387 80.5345
-14.625 97.379387 78.826302
-19.725 97.379387 80.768097
72.074997 98.315727 65.766602
69.525002 98.315727 64.277397
68.925003 98.315727 64.4161
58.424999 98.315727 70.803596
54.375 98.315727 68.540604
48.825001 98.315727 73.957199
36.825001 98.315727 77.030502
32.025002 98.315727 73.526497
27.075001 98.315727 79.140198
-8.1750002 98.315727 80.476097
-13.125 98.315727 78.694901
-19.424999 98.315727 80.636703
71.625 99.252068 65.730103
69.074997 99.252068 64.292
65.025002 99.252068 68.504097
57.974998 99.252068 70.789001
54.224998 99.252068 68.526001
48.224998 99.252068 73.928001
36.224998 99.252068 76.913696
31.275 99.252068 73.475403
26.475 99.252068 79.147499
-7.875 99.252068 80.3228
-13.575 99.252068 78.556198
-18.975 99.252068 80.622101
71.025002 100.18841 65.810402
68.625 100.18841 64.255501
64.574997 100.18841 68.496803
57.525002 100.18841 70.789001
53.474998 100.18841 68.474899
48.075001 100.18841 73.789299
35.775002 100.18841 76.9356
31.125 100.18841 73.417
26.174999 100.18841 79.074501
-7.2750001 100.18841 80.220596
-12.825 100.18841 78.490501
-18.674999 100.18841 80.425003
70.574997 101.12475 65.810402
68.025002 101.12475 64.299301
64.125 101.12475 68.445702
57.224998 101.12475 70.7379
53.325001 101.12475 68.445702
47.474998 101.12475 73.803902
35.325001 101.12475 76.906403
30.975 101.12475 73.329399
25.575001 101.12475 79.059898
-6.6750002 101.12475 80.133003
-12.075 101.12475 78.322601
-18.375 101.12475 80.3666
69.974998 102.06109 65.890701
67.574997 102.06109 64.3358
66.675003 102.06109 64.642403
56.775002 102.06109 70.796303
53.025002 102.06109 68.409203
47.325001 102.06109 73.606796
35.025002 102.06109 76.826103
30.525 102.06109 73.322098
25.125 102.06109 79.045303
-6.375 102.06109 80.059998
-12.825 102.06109 78.264198
-17.625 102.06109 80.227898
69.525002 102.99743 65.824997
66.974998 102.99743 64.474503
65.925003 102.99743 64.7519
56.325001 102.99743 70.723297
52.275002 102.99743 68.358101
47.174999 102.99743 73.6287
34.575001 102.99743 76.7677
29.475 102.99743 73.307503
24.825001 102.99743 78.957703
-11.625 102.99743 78.373703
-13.125 102.99743 78.300697
-17.025 102.99743 80.125702
68.925003 103.93377 65.9272
66.525002 103.93377 64.4599
62.174999 103.93377 68.584396
56.025002 103.93377 70.664902
51.974998 103.93377 68.314301
46.424999 103.93377 73.679802
34.125 103.93377 76.796898
29.475 103.93377 73.219902
24.674999 103.93377 78.921204
68.324997 104.87011 65.8834
65.775002 104.87011 64.554802
61.724998 104.87011 68.6063
55.575001 104.87011 70.628403
51.375 104.87011 68.219398
45.825001 104.87011 73.636002
33.674999 104.87011 76.709297
29.025 104.87011 73.197998
27.075001 104.87011 73.636002
-3.2249999 104.87011 79.622002
-10.725 104.87011 78.3153
-15.825 104.87011 80.067299
67.724998 105.80645 65.949097
65.324997 105.80645 64.532898
61.424999 105.80645 68.584396
55.275002 105.80645 70.584602
51.224998 105.80645 68.153702
45.674999 105.80645 73.570297
33.375 105.80645 76.665497
28.424999 105.80645 73.088501
26.475 105.80645 73.723602
-2.175 105.80645 79.607399
-10.275 105.80645 78.395599
-14.925 105.80645 79.935898
67.275002 106.74279 65.956398
64.724998 106.74279 64.613197
63.825001 106.74279 64.824898
54.825001 106.74279 70.548103
