# .PCD v0.7 - Point Cloud Data file format
VERSION 0.7
FIELDS x y z
SIZE 4 4 4
TYPE F F F
COUNT 1 1 1
WIDTH 1576
HEIGHT 1
VIEWPOINT 0 0 0 1 0 0 0
POINTS 1576
DATA ascii
-6.0450001 -6.882122 0.36932001
-6.0599999 -6.882122 0.37443
-6.0749998 -6.882122 0.37443
-6.0899997 -6.882122 0.37077999
-6.105 -6.882122 0.37443
-6.1199999 -6.882122 0.37661999
-6.1349998 -6.882122 0.37735
-6.1500001 -6.882122 0.38173002
-6.165 -6.882122 0.38319001
-6.1799998 -6.882122 0.38099998
-6.1949997 -6.882122 0.38173002
-6.21 -6.882122 0.38391998
-6.2249999 -6.882122 0.38538
-6.2399998 -6.882122 0.39194998
-6.2550001 -6.882122 0.38902998
-6.2700005 -6.882122 0.39049
-6.2849998 -6.882122 0.38902998
-6.3000002 -6.882122 0.38756999
1.6650001 -6.7884879 0.74965
1.65 -6.7884879 0.73651004
1.6349999 -6.7884879 0.73139995
1.62 -6.7884879 0.73212999
1.605 -6.7884879 0.73723996
1.5900002 -6.7884879 0.73359001
1.575 -6.7884879 0.73578
1.5599999 -6.7884879 0.73651004
1.545 -6.7884879 0.73578
1.53 -6.7884879 0.73359001
1.515 -6.7884879 0.73359001
1.5 -6.7884879 0.73505002
1.485 -6.7884879 0.73286003
1.47 -6.7884879 0.73212999
1.455 -6.7884879 0.73212999
1.4399999 -6.7884879 0.73212999
1.425 -6.7884879 0.72702003
1.4100001 -6.7884879 0.72847998
1.395 -6.7884879 0.72775
1.38 -6.7884879 0.72628999
1.365 -6.7884879 0.72702003
1.35 -6.7884879 0.72994
1.3349999 -6.7884879 0.73067003
1.3199999 -6.7884879 0.72556001
1.3050001 -6.7884879 0.72264004
1.2900001 -6.7884879 0.72336996
1.275 -6.7884879 0.72118002
1.26 -6.7884879 0.72409999
1.245 -6.7884879 0.72483003
1.23 -6.7884879 0.72702003
1.215 -6.7884879 0.72702003
1.2 -6.7884879 0.72483003
1.1850001 -6.7884879 0.72556001
1.17 -6.7884879 0.72336996
1.155 -6.7884879 0.72628999
1.14 -6.7884879 0.72409999
1.125 -6.7884879 0.72847998
1.11 -6.7884879 0.72702003
1.095 -6.7884879 0.72556001
1.08 -6.7884879 0.72409999
1.0649999 -6.7884879 0.72336996
1.05 -6.7884879 0.72336996
1.035 -6.7884879 0.71972001
1.02 -6.7884879 0.72118002
1.005 -6.7884879 0.71899003
0.99000001 -6.7884879 0.72118002
0.97500002 -6.7884879 0.71899003
0.96000004 -6.7884879 0.71460998
0.94499999 -6.7884879 0.71607
0.93000001 -6.7884879 0.71899003
0.91500002 -6.7884879 0.71534002
0.89999998 -6.7884879 0.71388
0.88499999 -6.7884879 0.71607
0.87 -6.7884879 0.71315002
0.85500002 -6.7884879 0.70731002
0.83999997 -6.7884879 0.70804
0.82499999 -6.7884879 0.71388
0.81 -6.7884879 0.71169001
0.79500008 -6.7884879 0.70657998
0.77999997 -6.7884879 0.71022999
0.76499999 -6.7884879 0.71241999
0.75 -6.7884879 0.71241999
0.73500001 -6.7884879 0.71241999
0.71999997 -6.7884879 0.71752995
0.70500004 -6.7884879 0.72921002
0.69 -6.7884879 0.73212999
0.67500001 -6.7884879 0.71388
0.65999997 -6.7884879 0.68906003
0.64500004 -6.7884879 0.66204995
0.63 -6.7884879 0.63577002
0.61500001 -6.7884879 0.63284999
0.60000002 -6.7884879 0.63577002
0.58499998 -6.7884879 0.63503999
0.56999999 -6.7884879 0.63358003
0.55500001 -6.7884879 0.63284999
0.54000002 -6.7884879 0.63212001
0.52499998 -6.7884879 0.63138998
0.50999999 -6.7884879 0.63212001
0.495 -6.7884879 0.6365
0.48000002 -6.7884879 0.63284999
0.465 -6.7884879 0.63138998
0.44999999 -6.7884879 0.63431001
0.435 -6.7884879 0.63577002
0.41999999 -6.7884879 0.63358003
0.405 -6.7884879 0.63138998
0.38999999 -6.7884879 0.63066
0.375 -6.7884879 0.63284999
0.35999998 -6.7884879 0.63358003
0.345 -6.7884879 0.62847
0.32999998 -6.7884879 0.62774003
0.315 -6.7884879 0.63212001
0.30000001 -6.7884879 0.62993002
0.285 -6.7884879 0.62919998
0.27000001 -6.7884879 0.63212001
0.255 -6.7884879 0.63284999
0.24000001 -6.7884879 0.63358003
0.22499999 -6.7884879 0.63431001
0.20999999 -6.7884879 0.63284999
0.19499999 -6.7884879 0.63431001
0.17999999 -6.7884879 0.62993002
0.16499999 -6.7884879 0.63066
0.15000001 -6.7884879 0.63284999
0.13500001 -6.7884879 0.63284999
0.12 -6.7884879 0.63284999
0.105 -6.7884879 0.63431001
0.089999996 -6.7884879 0.62993002
0.075000003 -6.7884879 0.62555003
0.060000002 -6.7884879 0.63212001
0.044999998 -6.7884879 0.63138998
0.030000001 -6.7884879 0.63066
0.015000001 -6.7884879 0.63722998
-0 -6.7884879 0.63796002
-0.015000001 -6.7884879 0.63577002
-0.030000001 -6.7884879 0.63431001
-0.044999998 -6.7884879 0.63577002
-0.060000002 -6.7884879 0.63431001
-0.075000003 -6.7884879 0.63722998
-0.089999996 -6.7884879 0.63722998
-0.105 -6.7884879 0.63066
-0.12 -6.7884879 0.63212001
-0.13500001 -6.7884879 0.63358003
-0.15000001 -6.7884879 0.63358003
-0.16499999 -6.7884879 0.63138998
-0.17999999 -6.7884879 0.62993002
-0.19499999 -6.7884879 0.62993002
-0.20999999 -6.7884879 0.63138998
-0.22499999 -6.7884879 0.63284999
-0.24000001 -6.7884879 0.62774003
-0.255 -6.7884879 0.63284999
-0.27000001 -6.7884879 0.63431001
-0.285 -6.7884879 0.6365
-0.30000001 -6.7884879 0.63577002
-0.315 -6.7884879 0.63358003
-0.32999998 -6.7884879 0.63284999
-0.345 -6.7884879 0.63358003
-0.35999998 -6.7884879 0.6365
-0.375 -6.7884879 0.63868999
-0.38999999 -6.7884879 0.63577002
-0.405 -6.7884879 0.62628001
-0.41999999 -6.7884879 0.63358003
-0.435 -6.7884879 0.63722998
-0.44999999 -6.7884879 0.63796002
-0.465 -6.7884879 0.6365
-0.48000002 -6.7884879 0.63284999
-0.495 -6.7884879 0.62847
-0.50999999 -6.7884879 0.62847
-0.52499998 -6.7884879 0.63503999
-0.54000002 -6.7884879 0.63284999
-0.55500001 -6.7884879 0.63503999
-0.56999999 -6.7884879 0.65548003
-0.58499998 -6.7884879 0.67591995
-0.60000002 -6.7884879 0.69854999
-0.61500001 -6.7884879 0.71680003
-0.63 -6.7884879 0.72044998
-0.64500004 -6.7884879 0.71022999
-0.65999997 -6.7884879 0.70438999
-0.67500001 -6.7884879 0.71022999
-0.69 -6.7884879 0.70877004
-0.70500004 -6.7884879 0.71022999
-0.71999997 -6.7884879 0.71241999
-0.73500001 -6.7884879 0.71241999
-0.75 -6.7884879 0.71315002
-0.76499999 -6.7884879 0.70877004
-0.77999997 -6.7884879 0.70949996
-0.79500008 -6.7884879 0.71169001
-0.81 -6.7884879 0.71241999
-0.82499999 -6.7884879 0.71315002
-0.83999997 -6.7884879 0.70731002
-0.85500002 -6.7884879 0.70657998
-0.87 -6.7884879 0.71096003
-0.88499999 -6.7884879 0.70949996
-0.89999998 -6.7884879 0.70877004
-0.91500002 -6.7884879 0.71315002
-0.93000001 -6.7884879 0.71460998
-0.94499999 -6.7884879 0.70949996
-0.96000004 -6.7884879 0.70657998
-0.97500002 -6.7884879 0.70877004
-0.99000001 -6.7884879 0.70877004
-1.005 -6.7884879 0.71388
-1.02 -6.7884879 0.71241999
-1.035 -6.7884879 0.71241999
-1.05 -6.7884879 0.70949996
-1.0649999 -6.7884879 0.70804
-1.08 -6.7884879 0.70731002
-1.095 -6.7884879 0.70731002
-1.11 -6.7884879 0.71096003
-1.125 -6.7884879 0.71534002
-1.14 -6.7884879 0.71680003
-1.155 -6.7884879 0.71607
-1.17 -6.7884879 0.71315002
-1.1850001 -6.7884879 0.71825999
-1.2 -6.7884879 0.71680003
-1.215 -6.7884879 0.71607
-1.23 -6.7884879 0.71169001
-1.245 -6.7884879 0.71096003
-1.26 -6.7884879 0.71388
-1.275 -6.7884879 0.71607
-1.2900001 -6.7884879 0.71460998
-1.3050001 -6.7884879 0.71315002
-1.3199999 -6.7884879 0.71096003
-1.3349999 -6.7884879 0.71315002
-1.35 -6.7884879 0.71315002
-1.365 -6.7884879 0.71388
-1.38 -6.7884879 0.71534002
-1.395 -6.7884879 0.71315002
-1.4100001 -6.7884879 0.71241999
-1.425 -6.7884879 0.71241999
-1.4399999 -6.7884879 0.70877004
-1.455 -6.7884879 0.71169001
-1.47 -6.7884879 0.71752995
-1.485 -6.7884879 0.71752995
-1.5 -6.7884879 0.71899003
-1.515 -6.7884879 0.71899003
-1.53 -6.7884879 0.71972001
-1.545 -6.7884879 0.71607
-1.5599999 -6.7884879 0.71825999
-1.575 -6.7884879 0.72118002
-1.5900002 -6.7884879 0.71972001
-1.605 -6.7884879 0.71899003
-1.62 -6.7884879 0.72264004
-1.6349999 -6.7884879 0.72483003
-1.65 -6.7884879 0.71972001
-1.6650001 -6.7884879 0.72191
-1.6799999 -6.7884879 0.72628999
-1.6950001 -6.7884879 0.72847998
-1.71 -6.7884879 0.72921002
-1.7249999 -6.7884879 0.72775
-1.74 -6.7884879 0.72483003
-1.7550001 -6.7884879 0.72191
-1.77 -6.7884879 0.71972001
-1.7850001 -6.7884879 0.71972001
-1.8 -6.7884879 0.72191
-1.8149999 -6.7884879 0.72702003
-1.83 -6.7884879 0.72702003
-1.8449999 -6.7884879 0.72702003
-1.86 -6.7884879 0.72921002
-1.8750001 -6.7884879 0.72702003
-1.89 -6.7884879 0.72628999
-1.905 -6.7884879 0.72847998
-1.9200001 -6.7884879 0.72847998
-1.9349999 -6.7884879 0.72628999
-1.95 -6.7884879 0.72628999
-1.9649999 -6.7884879 0.72556001
-1.98 -6.7884879 0.72556001
-1.995 -6.7884879 0.72775
-2.01 -6.7884879 0.73286003
-2.0250001 -6.7884879 0.72994
-2.04 -6.7884879 0.72921002
-2.0550001 -6.7884879 0.73139995
-2.0699999 -6.7884879 0.72994
-2.085 -6.7884879 0.73212999
-2.0999999 -6.7884879 0.72994
-2.115 -6.7884879 0.72994
-2.1299999 -6.7884879 0.73505002
-2.145 -6.7884879 0.72921002
-2.1600001 -6.7884879 0.72847998
-2.175 -6.7884879 0.73359001
-2.1900001 -6.7884879 0.73139995
-2.2050002 -6.7884879 0.72775
-2.22 -6.7884879 0.72847998
-2.2350001 -6.7884879 0.72921002
-2.25 -6.7884879 0.72556001
-2.2649999 -6.7884879 0.72483003
-2.28 -6.7884879 0.73431998
-2.2949998 -6.7884879 0.73212999
-2.3099999 -6.7884879 0.73067003
-2.325 -6.7884879 0.73359001
-2.3399999 -6.7884879 0.73943001
-2.355 -6.7884879 0.73943001
-2.3700001 -6.7884879 0.73651004
-2.385 -6.7884879 0.73723996
-2.4000001 -6.7884879 0.74162
-2.4150002 -6.7884879 0.74234998
-2.4300001 -6.7884879 0.73796999
-2.4449999 -6.7884879 0.73651004
-2.46 -6.7884879 0.73431998
-2.4749999 -6.7884879 0.74015999
-2.49 -6.7884879 0.73943001
-2.5049999 -6.7884879 0.73651004
-2.52 -6.7884879 0.73651004
-2.5350001 -6.7884879 0.73943001
-2.55 -6.7884879 0.73796999
-2.5650001 -6.7884879 0.74015999
-2.5800002 -6.7884879 0.74234998
-2.595 -6.7884879 0.73796999
-2.6100001 -6.7884879 0.73870003
-2.625 -6.7884879 0.73943001
-2.6399999 -6.7884879 0.74015999
-2.655 -6.7884879 0.74162
-2.6699998 -6.7884879 0.74307996
-2.6849999 -6.7884879 0.74307996
-2.7 -6.7884879 0.74015999
-2.7149999 -6.7884879 0.74089003
-2.73 -6.7884879 0.74307996
-2.7450001 -6.7884879 0.74162
-2.76 -6.7884879 0.74162
-2.7750001 -6.7884879 0.74089003
-2.79 -6.7884879 0.74234998
-2.8050001 -6.7884879 0.74307996
-2.8200002 -6.7884879 0.74526995
-2.835 -6.7884879 0.74673003
-2.8499999 -6.7884879 0.74454004
-2.865 -6.7884879 0.74454004
-2.8799999 -6.7884879 0.74162
-2.895 -6.7884879 0.74089003
-2.9100001 -6.7884879 0.74234998
-2.925 -6.7884879 0.74818999
-2.9400001 -6.7884879 0.74818999
-2.9549999 -6.7884879 0.74599999
-2.97 -6.7884879 0.74892002
-2.9850001 -6.7884879 0.74818999
-3 -6.7884879 0.74746001
-3.0150001 -6.7884879 0.75038004
-3.03 -6.7884879 0.75038004
-3.0449998 -6.7884879 0.74526995
-3.0599999 -6.7884879 0.74015999
-3.075 -6.7884879 0.74746001
-3.0899999 -6.7884879 0.76133001
-3.105 -6.7884879 0.77812004
-3.1199999 -6.7884879 0.79856002
-3.1350002 -6.7884879 0.81900007
-3.1500001 -6.7884879 0.84455001
-3.165 -6.7884879 0.85914999
-3.1800003 -6.7884879 0.88834995
-3.1950002 -6.7884879 0.90878999
-4.9049997 -6.7884879 0.74089003
-5.0999999 -6.7884879 0.42772001
-5.1150002 -6.7884879 0.40143999
-5.1300001 -6.7884879 0.37589002
-5.145 -6.7884879 0.35399002
-5.1600003 -6.7884879 0.33792999
-5.1750002 -6.7884879 0.32697999
-5.1900001 -6.7884879 0.31895
-5.2049999 -6.7884879 0.31457001
-5.2200003 -6.7884879 0.31018999
-5.2350001 -6.7884879 0.31384
-5.25 -6.7884879 0.31529999
-5.2649999 -6.7884879 0.31749001
-5.2799997 -6.7884879 0.32041001
-5.2950001 -6.7884879 0.32259998
-5.3099999 -6.7884879 0.32259998
-5.3249998 -6.7884879 0.32187
-5.3399997 -6.7884879 0.32187
-5.355 -6.7884879 0.31967998
-5.3699999 -6.7884879 0.31967998
-5.3849998 -6.7884879 0.31967998
-5.4000001 -6.7884879 0.31967998
-5.415 -6.7884879 0.31749001
-5.4299998 -6.7884879 0.31749001
-5.4450002 -6.7884879 0.32187
-5.46 -6.7884879 0.32259998
-5.4749999 -6.7884879 0.32259998
-5.4900002 -6.7884879 0.32697999
-5.5050001 -6.7884879 0.32625002
-5.52 -6.7884879 0.32113999
-5.5349998 -6.7884879 0.32113999
-5.5500002 -6.7884879 0.33063
-5.5650001 -6.7884879 0.32259998
-5.5799999 -6.7884879 0.32259998
-5.5950003 -6.7884879 0.32697999
-5.6100001 -6.7884879 0.32916999
-5.625 -6.7884879 0.33208999
-5.6400003 -6.7884879 0.33282
-5.6550002 -6.7884879 0.3299
-5.6700001 -6.7884879 0.32844001
-5.6849999 -6.7884879 0.3299
-5.6999998 -6.7884879 0.33063
-5.7149997 -6.7884879 0.3299
-5.73 -6.7884879 0.33428001
-5.7449999 -6.7884879 0.33136001
-5.7599998 -6.7884879 0.33136001
-5.7750001 -6.7884879 0.32844001
-5.79 -6.7884879 0.33136001
-5.8049998 -6.7884879 0.33792999
-5.8200002 -6.7884879 0.34012002
-5.835 -6.7884879 0.34303999
-5.8499999 -6.7884879 0.34815001
-5.8649998 -6.7884879 0.35982999
-5.8800001 -6.7884879 0.39559999
-5.9700003 -6.7884879 0.39559999
-5.9850001 -6.7884879 0.36202002
-6 -6.7884879 0.36786002
-6.0150003 -6.7884879 0.36786002
-6.0300002 -6.7884879 0.37224001
-6.0450001 -6.7884879 0.37443
-6.0599999 -6.7884879 0.37589002
-6.0749998 -6.7884879 0.37661999
-6.0899997 -6.7884879 0.38319001
-6.105 -6.7884879 0.37589002
-6.1199999 -6.7884879 0.37515998
-6.1349998 -6.7884879 0.37807998
-6.1500001 -6.7884879 0.38099998
-6.165 -6.7884879 0.38173002
-6.1799998 -6.7884879 0.38027
-6.1949997 -6.7884879 0.37807998
-6.21 -6.7884879 0.38099998
-6.2249999 -6.7884879 0.37369999
-6.2399998 -6.7884879 0.38246
-6.2550001 -6.7884879 0.38902998
-6.2700005 -6.7884879 0.39340997
-6.2849998 -6.7884879 0.39268002
-6.3000002 -6.7884879 0.39049
-6.3150005 -6.7884879 0.38756999
-6.3299999 -6.7884879 0.38246
-6.3450003 -6.7884879 0.37589002
1.6650001 -6.6948543 0.74599999
1.65 -6.6948543 0.73943001
1.6349999 -6.6948543 0.73431998
1.62 -6.6948543 0.73212999
1.605 -6.6948543 0.73505002
1.5900002 -6.6948543 0.73578
1.575 -6.6948543 0.73578
1.5599999 -6.6948543 0.73651004
1.545 -6.6948543 0.73286003
1.53 -6.6948543 0.73067003
1.515 -6.6948543 0.73286003
1.5 -6.6948543 0.73359001
1.485 -6.6948543 0.73067003
1.47 -6.6948543 0.72994
1.455 -6.6948543 0.72628999
1.4399999 -6.6948543 0.72921002
1.425 -6.6948543 0.72847998
1.4100001 -6.6948543 0.73139995
1.395 -6.6948543 0.73359001
1.38 -6.6948543 0.73067003
1.365 -6.6948543 0.72628999
1.35 -6.6948543 0.72336996
1.3349999 -6.6948543 0.72483003
1.3199999 -6.6948543 0.72336996
1.3050001 -6.6948543 0.72336996
1.2900001 -6.6948543 0.72336996
1.275 -6.6948543 0.72775
1.26 -6.6948543 0.72847998
1.245 -6.6948543 0.72775
1.23 -6.6948543 0.72994
1.215 -6.6948543 0.73067003
1.2 -6.6948543 0.72702003
1.1850001 -6.6948543 0.72483003
1.17 -6.6948543 0.72628999
1.155 -6.6948543 0.72556001
1.14 -6.6948543 0.72336996
1.125 -6.6948543 0.72628999
1.11 -6.6948543 0.72775
1.095 -6.6948543 0.72994
1.08 -6.6948543 0.72921002
1.0649999 -6.6948543 0.72264004
1.05 -6.6948543 0.71972001
1.035 -6.6948543 0.72191
1.02 -6.6948543 0.72336996
1.005 -6.6948543 0.72118002
0.99000001 -6.6948543 0.72628999
0.97500002 -6.6948543 0.71825999
0.96000004 -6.6948543 0.71752995
0.94499999 -6.6948543 0.71680003
0.93000001 -6.6948543 0.71460998
0.91500002 -6.6948543 0.71607
0.89999998 -6.6948543 0.71607
0.88499999 -6.6948543 0.71241999
0.87 -6.6948543 0.70949996
0.85500002 -6.6948543 0.70877004
0.83999997 -6.6948543 0.71241999
0.82499999 -6.6948543 0.71241999
0.81 -6.6948543 0.71241999
0.79500008 -6.6948543 0.71315002
0.77999997 -6.6948543 0.70804
0.76499999 -6.6948543 0.70512003
0.75 -6.6948543 0.70949996
0.73500001 -6.6948543 0.71241999
0.71999997 -6.6948543 0.71534002
0.70500004 -6.6948543 0.72556001
0.69 -6.6948543 0.73943001
0.67500001 -6.6948543 0.74162
0.65999997 -6.6948543 0.69270998
0.64500004 -6.6948543 0.64161003
0.63 -6.6948543 0.63284999
0.61500001 -6.6948543 0.63212001
0.60000002 -6.6948543 0.63577002
0.58499998 -6.6948543 0.63796002
0.56999999 -6.6948543 0.63722998
0.55500001 -6.6948543 0.63431001
0.54000002 -6.6948543 0.63284999
0.52499998 -6.6948543 0.63358003
0.50999999 -6.6948543 0.63577002
0.495 -6.6948543 0.63577002
0.48000002 -6.6948543 0.63503999
0.465 -6.6948543 0.62993002
0.44999999 -6.6948543 0.62628001
0.435 -6.6948543 0.62993002
0.41999999 -6.6948543 0.63431001
0.405 -6.6948543 0.63358003
0.38999999 -6.6948543 0.63431001
0.375 -6.6948543 0.63138998
0.35999998 -6.6948543 0.63577002
0.345 -6.6948543 0.63212001
0.32999998 -6.6948543 0.63138998
0.315 -6.6948543 0.63212001
0.30000001 -6.6948543 0.63358003
0.285 -6.6948543 0.63503999
0.27000001 -6.6948543 0.63066
0.255 -6.6948543 0.62628001
0.24000001 -6.6948543 0.63284999
0.22499999 -6.6948543 0.63358003
0.20999999 -6.6948543 0.63066
0.19499999 -6.6948543 0.63431001
0.17999999 -6.6948543 0.63212001
0.16499999 -6.6948543 0.63212001
0.15000001 -6.6948543 0.62993002
0.13500001 -6.6948543 0.62700999
0.12 -6.6948543 0.62774003
0.105 -6.6948543 0.63066
0.089999996 -6.6948543 0.62847
0.075000003 -6.6948543 0.63577002
0.060000002 -6.6948543 0.63503999
0.044999998 -6.6948543 0.63138998
0.030000001 -6.6948543 0.63358003
0.015000001 -6.6948543 0.63066
-0 -6.6948543 0.62993002
-0.015000001 -6.6948543 0.63138998
-0.030000001 -6.6948543 0.63358003
-0.044999998 -6.6948543 0.63577002
-0.060000002 -6.6948543 0.63284999
-0.075000003 -6.6948543 0.63066
-0.089999996 -6.6948543 0.62847
-0.105 -6.6948543 0.62919998
-0.12 -6.6948543 0.62919998
-0.13500001 -6.6948543 0.62847
-0.15000001 -6.6948543 0.62919998
-0.16499999 -6.6948543 0.63066
-0.17999999 -6.6948543 0.62993002
-0.19499999 -6.6948543 0.62847
-0.20999999 -6.6948543 0.63284999
-0.22499999 -6.6948543 0.63358003
-0.24000001 -6.6948543 0.63722998
-0.255 -6.6948543 0.63066
-0.27000001 -6.6948543 0.62993002
-0.285 -6.6948543 0.6365
-0.30000001 -6.6948543 0.63868999
-0.315 -6.6948543 0.63577002
-0.32999998 -6.6948543 0.63066
-0.345 -6.6948543 0.62774003
-0.35999998 -6.6948543 0.63284999
-0.375 -6.6948543 0.6365
-0.38999999 -6.6948543 0.62993002
-0.405 -6.6948543 0.62993002
-0.41999999 -6.6948543 0.63212001
-0.435 -6.6948543 0.63284999
-0.44999999 -6.6948543 0.63431001
-0.465 -6.6948543 0.63431001
-0.48000002 -6.6948543 0.63066
-0.495 -6.6948543 0.62847
-0.50999999 -6.6948543 0.63212001
-0.52499998 -6.6948543 0.63868999
-0.54000002 -6.6948543 0.63722998
-0.55500001 -6.6948543 0.64015001
-0.56999999 -6.6948543 0.65474999
-0.58499998 -6.6948543 0.67738003
-0.60000002 -6.6948543 0.69854999
-0.61500001 -6.6948543 0.72409999
-0.63 -6.6948543 0.74892002
-0.64500004 -6.6948543 0.77228004
-0.65999997 -6.6948543 0.79052997
-0.67500001 -6.6948543 0.77155
-0.69 -6.6948543 0.71899003
-0.70500004 -6.6948543 0.70804
-0.71999997 -6.6948543 0.70804
-0.73500001 -6.6948543 0.71096003
-0.75 -6.6948543 0.70877004
-0.76499999 -6.6948543 0.70804
-0.77999997 -6.6948543 0.70877004
-0.79500008 -6.6948543 0.70949996
-0.81 -6.6948543 0.71022999
-0.82499999 -6.6948543 0.70804
-0.83999997 -6.6948543 0.71022999
-0.85500002 -6.6948543 0.70512003
-0.87 -6.6948543 0.70949996
-0.88499999 -6.6948543 0.71022999
-0.89999998 -6.6948543 0.70804
-0.91500002 -6.6948543 0.71096003
-0.93000001 -6.6948543 0.71241999
-0.94499999 -6.6948543 0.70949996
-0.96000004 -6.6948543 0.70949996
-0.97500002 -6.6948543 0.71169001
-0.99000001 -6.6948543 0.71169001
-1.005 -6.6948543 0.71460998
-1.02 -6.6948543 0.71680003
-1.035 -6.6948543 0.71315002
-1.05 -6.6948543 0.71096003
-1.0649999 -6.6948543 0.71680003
-1.08 -6.6948543 0.71680003
-1.095 -6.6948543 0.71169001
-1.11 -6.6948543 0.70877004
-1.125 -6.6948543 0.71022999
-1.14 -6.6948543 0.71096003
-1.155 -6.6948543 0.70804
-1.17 -6.6948543 0.71096003
-1.1850001 -6.6948543 0.70731002
-1.2 -6.6948543 0.71022999
-1.215 -6.6948543 0.71096003
-1.23 -6.6948543 0.71388
-1.245 -6.6948543 0.71825999
-1.26 -6.6948543 0.71825999
-1.275 -6.6948543 0.71460998
-1.2900001 -6.6948543 0.71315002
-1.3050001 -6.6948543 0.71680003
-1.3199999 -6.6948543 0.71460998
-1.3349999 -6.6948543 0.71607
-1.35 -6.6948543 0.71607
-1.365 -6.6948543 0.71680003
-1.38 -6.6948543 0.71752995
-1.395 -6.6948543 0.71752995
-1.4100001 -6.6948543 0.71388
-1.425 -6.6948543 0.71169001
-1.4399999 -6.6948543 0.71388
-1.455 -6.6948543 0.71607
-1.47 -6.6948543 0.71388
-1.485 -6.6948543 0.71825999
-1.5 -6.6948543 0.71899003
-1.515 -6.6948543 0.71972001
-1.53 -6.6948543 0.71825999
-1.545 -6.6948543 0.72118002
-1.5599999 -6.6948543 0.72556001
-1.575 -6.6948543 0.72628999
-1.5900002 -6.6948543 0.72118002
-1.605 -6.6948543 0.71972001
-1.62 -6.6948543 0.72483003
-1.6349999 -6.6948543 0.72264004
-1.65 -6.6948543 0.72191
-1.6650001 -6.6948543 0.71899003
-1.6799999 -6.6948543 0.72336996
-1.6950001 -6.6948543 0.72483003
-1.71 -6.6948543 0.72702003
-1.7249999 -6.6948543 0.72556001
-1.74 -6.6948543 0.72409999
-1.7550001 -6.6948543 0.72191
-1.77 -6.6948543 0.71825999
-1.7850001 -6.6948543 0.72556001
-1.8 -6.6948543 0.72483003
-1.8149999 -6.6948543 0.72264004
-1.83 -6.6948543 0.72191
-1.8449999 -6.6948543 0.71752995
-1.86 -6.6948543 0.72191
-1.8750001 -6.6948543 0.72483003
-1.89 -6.6948543 0.72409999
-1.905 -6.6948543 0.72264004
-1.9200001 -6.6948543 0.72483003
-1.9349999 -6.6948543 0.72702003
-1.95 -6.6948543 0.73286003
-1.9649999 -6.6948543 0.72409999
-1.98 -6.6948543 0.72628999
-1.995 -6.6948543 0.72775
-2.01 -6.6948543 0.72702003
-2.0250001 -6.6948543 0.73067003
-2.04 -6.6948543 0.72994
-2.0550001 -6.6948543 0.73067003
-2.0699999 -6.6948543 0.73431998
-2.085 -6.6948543 0.72994
-2.0999999 -6.6948543 0.73212999
-2.115 -6.6948543 0.73067003
-2.1299999 -6.6948543 0.72921002
-2.145 -6.6948543 0.73067003
-2.1600001 -6.6948543 0.73212999
-2.175 -6.6948543 0.73212999
-2.1900001 -6.6948543 0.72994
-2.2050002 -6.6948543 0.72847998
-2.22 -6.6948543 0.73067003
-2.2350001 -6.6948543 0.73067003
-2.25 -6.6948543 0.72628999
-2.2649999 -6.6948543 0.72409999
-2.28 -6.6948543 0.72847998
-2.2949998 -6.6948543 0.73359001
-2.3099999 -6.6948543 0.73431998
-2.325 -6.6948543 0.72994
-2.3399999 -6.6948543 0.73286003
-2.355 -6.6948543 0.73578
-2.3700001 -6.6948543 0.73505002
-2.385 -6.6948543 0.73286003
-2.4000001 -6.6948543 0.72775
-2.4150002 -6.6948543 0.73359001
-2.4300001 -6.6948543 0.72921002
-2.4449999 -6.6948543 0.72994
-2.46 -6.6948543 0.73431998
-2.4749999 -6.6948543 0.73286003
-2.49 -6.6948543 0.73212999
-2.5049999 -6.6948543 0.73651004
-2.52 -6.6948543 0.74015999
-2.5350001 -6.6948543 0.74162
-2.55 -6.6948543 0.74162
-2.5650001 -6.6948543 0.73943001
-2.5800002 -6.6948543 0.73870003
-2.595 -6.6948543 0.73505002
-2.6100001 -6.6948543 0.73870003
-2.625 -6.6948543 0.74089003
-2.6399999 -6.6948543 0.74089003
-2.655 -6.6948543 0.74015999
-2.6699998 -6.6948543 0.74015999
-2.6849999 -6.6948543 0.74234998
-2.7 -6.6948543 0.74307996
-2.7149999 -6.6948543 0.74015999
-2.73 -6.6948543 0.73870003
-2.7450001 -6.6948543 0.73870003
-2.76 -6.6948543 0.73796999
-2.7750001 -6.6948543 0.73943001
-2.79 -6.6948543 0.74307996
-2.8050001 -6.6948543 0.74454004
-2.8200002 -6.6948543 0.74015999
-2.835 -6.6948543 0.73431998
-2.8499999 -6.6948543 0.73139995
-2.865 -6.6948543 0.73505002
-2.8799999 -6.6948543 0.74162
-2.895 -6.6948543 0.74381
-2.9100001 -6.6948543 0.74089003
-2.925 -6.6948543 0.74015999
-2.9400001 -6.6948543 0.74673003
-2.9549999 -6.6948543 0.74965
-2.97 -6.6948543 0.74818999
-2.9850001 -6.6948543 0.74673003
-3 -6.6948543 0.74965
-3.0150001 -6.6948543 0.75110996
-3.03 -6.6948543 0.74673003
-3.0449998 -6.6948543 0.74162
-3.0599999 -6.6948543 0.75184
-3.075 -6.6948543 0.75768
-3.0899999 -6.6948543 0.76644003
-3.105 -6.6948543 0.78176993
-3.1199999 -6.6948543 0.80513006
-3.1350002 -6.6948543 0.83068001
-3.1500001 -6.6948543 0.85039002
-3.165 -6.6948543 0.87083
-3.1800003 -6.6948543 0.89053994
-5.085 -6.6948543 0.44816002
-5.0999999 -6.6948543 0.42991
-5.1150002 -6.6948543 0.40581998
-5.1300001 -6.6948543 0.38027
-5.145 -6.6948543 0.35618001
-5.1600003 -6.6948543 0.33574
-5.1750002 -6.6948543 0.32405999
-5.1900001 -6.6948543 0.32041001
-5.2049999 -6.6948543 0.31676
-5.2200003 -6.6948543 0.31749001
-5.2350001 -6.6948543 0.31821999
-5.25 -6.6948543 0.31895
-5.2649999 -6.6948543 0.31384
-5.2799997 -6.6948543 0.31529999
-5.2950001 -6.6948543 0.31749001
-5.3099999 -6.6948543 0.31676
-5.3249998 -6.6948543 0.31603
-5.3399997 -6.6948543 0.31676
-5.355 -6.6948543 0.31603
-5.3699999 -6.6948543 0.31676
-5.3849998 -6.6948543 0.31895
-5.4000001 -6.6948543 0.31676
-5.415 -6.6948543 0.31821999
-5.4299998 -6.6948543 0.31967998
-5.4450002 -6.6948543 0.32113999
-5.46 -6.6948543 0.32333001
-5.4749999 -6.6948543 0.32479
-5.4900002 -6.6948543 0.32479
-5.5050001 -6.6948543 0.32844001
-5.52 -6.6948543 0.32333001
-5.5349998 -6.6948543 0.31895
-5.5500002 -6.6948543 0.32697999
-5.5650001 -6.6948543 0.32771
-5.5799999 -6.6948543 0.32916999
-5.5950003 -6.6948543 0.32916999
-5.6100001 -6.6948543 0.32916999
-5.625 -6.6948543 0.3299
-5.6400003 -6.6948543 0.32844001
-5.6550002 -6.6948543 0.32916999
-5.6700001 -6.6948543 0.33208999
-5.6849999 -6.6948543 0.33428001
-5.6999998 -6.6948543 0.33282
-5.7149997 -6.6948543 0.32844001
-5.73 -6.6948543 0.32844001
-5.7449999 -6.6948543 0.33282
-5.7599998 -6.6948543 0.33136001
-5.7750001 -6.6948543 0.33282
-5.79 -6.6948543 0.33646998
-5.8049998 -6.6948543 0.33720002
-5.8200002 -6.6948543 0.33792999
-5.835 -6.6948543 0.34377
-5.8499999 -6.6948543 0.35033998
-5.8649998 -6.6948543 0.3664
-5.8800001 -6.6948543 0.4102
-5.9549999 -6.6948543 0.45838001
-5.9700003 -6.6948543 0.39122003
-5.9850001 -6.6948543 0.34961
-6 -6.6948543 0.36128998
-6.0150003 -6.6948543 0.36786002
-6.0300002 -6.6948543 0.37369999
-6.0450001 -6.6948543 0.37443
-6.0599999 -6.6948543 0.37515998
-6.0749998 -6.6948543 0.37515998
-6.0899997 -6.6948543 0.37151
-6.105 -6.6948543 0.37151
-6.1199999 -6.6948543 0.37807998
-6.1349998 -6.6948543 0.38319001
-6.1500001 -6.6948543 0.38464999
-6.165 -6.6948543 0.38611001
-6.1799998 -6.6948543 0.38756999
-6.1949997 -6.6948543 0.38464999
-6.21 -6.6948543 0.38391998
-6.2249999 -6.6948543 0.38391998
-6.2399998 -6.6948543 0.39559999
-6.2550001 -6.6948543 0.39487001
-6.2700005 -6.6948543 0.38976002
-6.2849998 -6.6948543 0.38683999
-6.3000002 -6.6948543 0.38683999
-6.3150005 -6.6948543 0.39122003
-6.3299999 -6.6948543 0.39194998
-6.3450003 -6.6948543 0.38683999
-6.3600006 -6.6948543 0.38683999
1.6650001 -6.6012197 0.75841004
1.65 -6.6012197 0.73578
1.6349999 -6.6012197 0.72775
1.62 -6.6012197 0.72702003
1.605 -6.6012197 0.73139995
1.5900002 -6.6012197 0.73139995
1.575 -6.6012197 0.73212999
1.5599999 -6.6012197 0.73067003
1.545 -6.6012197 0.73212999
1.53 -6.6012197 0.73286003
1.515 -6.6012197 0.73212999
1.5 -6.6012197 0.73431998
1.485 -6.6012197 0.73505002
1.47 -6.6012197 0.73067003
1.455 -6.6012197 0.72628999
1.4399999 -6.6012197 0.73212999
1.425 -6.6012197 0.72994
1.4100001 -6.6012197 0.73139995
1.395 -6.6012197 0.73212999
1.38 -6.6012197 0.72994
1.365 -6.6012197 0.72847998
1.35 -6.6012197 0.72775
1.3349999 -6.6012197 0.72556001
1.3199999 -6.6012197 0.72556001
1.3050001 -6.6012197 0.72921002
1.2900001 -6.6012197 0.72702003
1.275 -6.6012197 0.72921002
1.26 -6.6012197 0.72483003
1.245 -6.6012197 0.72556001
1.23 -6.6012197 0.72409999
1.215 -6.6012197 0.72336996
1.2 -6.6012197 0.72483003
1.1850001 -6.6012197 0.72118002
1.17 -6.6012197 0.72264004
1.155 -6.6012197 0.71607
1.14 -6.6012197 0.72044998
1.125 -6.6012197 0.72409999
1.11 -6.6012197 0.72409999
1.095 -6.6012197 0.72044998
1.08 -6.6012197 0.71825999
1.0649999 -6.6012197 0.72409999
1.05 -6.6012197 0.72994
1.035 -6.6012197 0.73067003
1.02 -6.6012197 0.72556001
1.005 -6.6012197 0.72044998
0.99000001 -6.6012197 0.72483003
0.97500002 -6.6012197 0.72118002
0.96000004 -6.6012197 0.71899003
0.94499999 -6.6012197 0.71972001
0.93000001 -6.6012197 0.71825999
0.91500002 -6.6012197 0.71680003
0.89999998 -6.6012197 0.71534002
0.88499999 -6.6012197 0.71096003
0.87 -6.6012197 0.70804
0.85500002 -6.6012197 0.71022999
0.83999997 -6.6012197 0.71169001
0.82499999 -6.6012197 0.70804
0.81 -6.6012197 0.70804
0.79500008 -6.6012197 0.70438999
0.77999997 -6.6012197 0.70365995
0.76499999 -6.6012197 0.70438999
0.75 -6.6012197 0.70657998
0.73500001 -6.6012197 0.70949996
0.71999997 -6.6012197 0.71241999
0.70500004 -6.6012197 0.72044998
0.69 -6.6012197 0.72847998
0.67500001 -6.6012197 0.70438999
0.65999997 -6.6012197 0.67883998
0.64500004 -6.6012197 0.64087999
0.63 -6.6012197 0.63431001
0.61500001 -6.6012197 0.63503999
0.60000002 -6.6012197 0.63358003
0.58499998 -6.6012197 0.63138998
0.56999999 -6.6012197 0.63358003
0.55500001 -6.6012197 0.63722998
0.54000002 -6.6012197 0.6365
0.52499998 -6.6012197 0.63212001
0.50999999 -6.6012197 0.63503999
0.495 -6.6012197 0.63358003
0.48000002 -6.6012197 0.63577002
0.465 -6.6012197 0.63503999
0.44999999 -6.6012197 0.63431001
0.435 -6.6012197 0.63503999
0.41999999 -6.6012197 0.63503999
0.405 -6.6012197 0.63212001
0.38999999 -6.6012197 0.63066
0.375 -6.6012197 0.63284999
0.35999998 -6.6012197 0.63284999
0.345 -6.6012197 0.63066
0.32999998 -6.6012197 0.62993002
0.315 -6.6012197 0.62993002
0.30000001 -6.6012197 0.63212001
0.285 -6.6012197 0.63066
0.27000001 -6.6012197 0.62847
0.255 -6.6012197 0.63066
0.24000001 -6.6012197 0.62993002
0.22499999 -6.6012197 0.62919998
0.20999999 -6.6012197 0.63212001
0.19499999 -6.6012197 0.63212001
0.17999999 -6.6012197 0.63284999
0.16499999 -6.6012197 0.63212001
0.15000001 -6.6012197 0.63212001
0.13500001 -6.6012197 0.63138998
0.12 -6.6012197 0.62993002
0.105 -6.6012197 0.63212001
0.089999996 -6.6012197 0.63503999
0.075000003 -6.6012197 0.63503999
0.060000002 -6.6012197 0.63577002
0.044999998 -6.6012197 0.62993002
0.030000001 -6.6012197 0.63431001
0.015000001 -6.6012197 0.63212001
-0 -6.6012197 0.63066
-0.015000001 -6.6012197 0.63358003
-0.030000001 -6.6012197 0.63284999
-0.044999998 -6.6012197 0.62919998
-0.060000002 -6.6012197 0.63066
-0.075000003 -6.6012197 0.62774003
-0.089999996 -6.6012197 0.63212001
-0.105 -6.6012197 0.62847
-0.12 -6.6012197 0.63358003
-0.13500001 -6.6012197 0.63358003
-0.15000001 -6.6012197 0.63212001
-0.16499999 -6.6012197 0.63577002
-0.17999999 -6.6012197 0.63577002
-0.19499999 -6.6012197 0.63358003
-0.20999999 -6.6012197 0.63431001
-0.22499999 -6.6012197 0.62700999
-0.24000001 -6.6012197 0.62919998
-0.255 -6.6012197 0.63284999
-0.27000001 -6.6012197 0.63577002
-0.285 -6.6012197 0.63503999
-0.30000001 -6.6012197 0.63431001
-0.315 -6.6012197 0.63577002
-0.32999998 -6.6012197 0.63431001
-0.345 -6.6012197 0.62919998
-0.35999998 -6.6012197 0.62774003
-0.375 -6.6012197 0.63358003
-0.38999999 -6.6012197 0.63138998
-0.405 -6.6012197 0.63431001
-0.41999999 -6.6012197 0.63431001
-0.435 -6.6012197 0.63577002
-0.44999999 -6.6012197 0.63722998
-0.465 -6.6012197 0.63722998
-0.48000002 -6.6012197 0.63577002
-0.495 -6.6012197 0.63284999
-0.50999999 -6.6012197 0.62993002
-0.52499998 -6.6012197 0.63212001
-0.54000002 -6.6012197 0.63284999
-0.55500001 -6.6012197 0.64015001
-0.56999999 -6.6012197 0.65548003
-0.58499998 -6.6012197 0.67738003
-0.60000002 -6.6012197 0.69635999
-0.61500001 -6.6012197 0.72118002
-0.63 -6.6012197 0.74673003
-0.64500004 -6.6012197 0.76279002
-0.65999997 -6.6012197 0.76863003
-0.67500001 -6.6012197 0.75768
-0.69 -6.6012197 0.72847998
-0.70500004 -6.6012197 0.71534002
-0.71999997 -6.6012197 0.70657998
-0.73500001 -6.6012197 0.70585001
-0.75 -6.6012197 0.70877004
-0.76499999 -6.6012197 0.70877004
-0.77999997 -6.6012197 0.70365995
-0.79500008 -6.6012197 0.70001
-0.81 -6.6012197 0.70293003
-0.82499999 -6.6012197 0.71241999
-0.83999997 -6.6012197 0.71388
-0.85500002 -6.6012197 0.70731002
-0.87 -6.6012197 0.70949996
-0.88499999 -6.6012197 0.71607
-0.89999998 -6.6012197 0.71388
-0.91500002 -6.6012197 0.70804
-0.93000001 -6.6012197 0.70657998
-0.94499999 -6.6012197 0.70804
-0.96000004 -6.6012197 0.70877004
-0.97500002 -6.6012197 0.71096003
-0.99000001 -6.6012197 0.71388
-1.005 -6.6012197 0.71388
-1.02 -6.6012197 0.71607
-1.035 -6.6012197 0.71534002
-1.05 -6.6012197 0.70877004
-1.0649999 -6.6012197 0.71096003
-1.08 -6.6012197 0.71096003
-1.095 -6.6012197 0.71022999
-1.11 -6.6012197 0.71096003
-1.125 -6.6012197 0.71096003
-1.14 -6.6012197 0.70949996
-1.155 -6.6012197 0.70949996
-1.17 -6.6012197 0.70804
-1.1850001 -6.6012197 0.71680003
-1.2 -6.6012197 0.71315002
-1.215 -6.6012197 0.71315002
-1.23 -6.6012197 0.71534002
-1.245 -6.6012197 0.71388
-1.26 -6.6012197 0.71315002
-1.275 -6.6012197 0.71388
-1.2900001 -6.6012197 0.71315002
-1.3050001 -6.6012197 0.71241999
-1.3199999 -6.6012197 0.71680003
-1.3349999 -6.6012197 0.71388
-1.35 -6.6012197 0.71241999
-1.365 -6.6012197 0.71460998
-1.38 -6.6012197 0.71315002
-1.395 -6.6012197 0.71241999
-1.4100001 -6.6012197 0.71022999
-1.425 -6.6012197 0.70949996
-1.4399999 -6.6012197 0.71169001
-1.455 -6.6012197 0.71680003
-1.47 -6.6012197 0.72264004
-1.485 -6.6012197 0.71972001
-1.5 -6.6012197 0.71388
-1.515 -6.6012197 0.71534002
-1.53 -6.6012197 0.71899003
-1.545 -6.6012197 0.71899003
-1.5599999 -6.6012197 0.71972001
-1.575 -6.6012197 0.72336996
-1.5900002 -6.6012197 0.72409999
-1.605 -6.6012197 0.72118002
-1.62 -6.6012197 0.72264004
-1.6349999 -6.6012197 0.72191
-1.65 -6.6012197 0.72336996
-1.6650001 -6.6012197 0.72118002
-1.6799999 -6.6012197 0.72044998
-1.6950001 -6.6012197 0.72118002
-1.71 -6.6012197 0.71972001
-1.7249999 -6.6012197 0.72191
-1.74 -6.6012197 0.72409999
-1.7550001 -6.6012197 0.72264004
-1.77 -6.6012197 0.72118002
-1.7850001 -6.6012197 0.72044998
-1.8 -6.6012197 0.71972001
-1.8149999 -6.6012197 0.72191
-1.83 -6.6012197 0.72556001
-1.8449999 -6.6012197 0.72191
-1.86 -6.6012197 0.71825999
-1.8750001 -6.6012197 0.71680003
-1.89 -6.6012197 0.72118002
-1.905 -6.6012197 0.72628999
-1.9200001 -6.6012197 0.72556001
-1.9349999 -6.6012197 0.72628999
-1.95 -6.6012197 0.72628999
-1.9649999 -6.6012197 0.72921002
-1.98 -6.6012197 0.72628999
-1.995 -6.6012197 0.72702003
-2.01 -6.6012197 0.72775
-2.0250001 -6.6012197 0.72628999
-2.04 -6.6012197 0.72775
-2.0550001 -6.6012197 0.73139995
-2.0699999 -6.6012197 0.73139995
-2.085 -6.6012197 0.72994
-2.0999999 -6.6012197 0.73212999
-2.115 -6.6012197 0.73139995
-2.1299999 -6.6012197 0.73139995
-2.145 -6.6012197 0.73067003
-2.1600001 -6.6012197 0.73067003
-2.175 -6.6012197 0.73139995
-2.1900001 -6.6012197 0.72921002
-2.2050002 -6.6012197 0.72847998
-2.22 -6.6012197 0.72994
-2.2350001 -6.6012197 0.72994
-2.25 -6.6012197 0.72628999
-2.2649999 -6.6012197 0.72409999
-2.28 -6.6012197 0.73431998
-2.2949998 -6.6012197 0.73286003
-2.3099999 -6.6012197 0.73286003
-2.325 -6.6012197 0.73212999
-2.3399999 -6.6012197 0.72775
-2.355 -6.6012197 0.72628999
-2.3700001 -6.6012197 0.72994
-2.385 -6.6012197 0.73359001
-2.4000001 -6.6012197 0.73505002
-2.4150002 -6.6012197 0.73723996
-2.4300001 -6.6012197 0.73139995
-2.4449999 -6.6012197 0.73578
-2.46 -6.6012197 0.73578
-2.4749999 -6.6012197 0.73651004
-2.49 -6.6012197 0.73651004
-2.5049999 -6.6012197 0.73578
-2.52 -6.6012197 0.73578
-2.5350001 -6.6012197 0.73796999
-2.55 -6.6012197 0.73651004
-2.5650001 -6.6012197 0.73578
-2.5800002 -6.6012197 0.73505002
-2.595 -6.6012197 0.74234998
-2.6100001 -6.6012197 0.74162
-2.625 -6.6012197 0.74015999
-2.6399999 -6.6012197 0.73870003
-2.655 -6.6012197 0.73796999
-2.6699998 -6.6012197 0.74015999
-2.6849999 -6.6012197 0.74162
-2.7 -6.6012197 0.74162
-2.7149999 -6.6012197 0.73723996
-2.73 -6.6012197 0.73212999
-2.7450001 -6.6012197 0.73651004
-2.76 -6.6012197 0.73578
-2.7750001 -6.6012197 0.73505002
-2.79 -6.6012197 0.73723996
-2.8050001 -6.6012197 0.73796999
-2.8200002 -6.6012197 0.73870003
-2.835 -6.6012197 0.73870003
-2.8499999 -6.6012197 0.74162
-2.865 -6.6012197 0.74234998
-2.8799999 -6.6012197 0.73723996
-2.895 -6.6012197 0.73796999
-2.9100001 -6.6012197 0.74015999
-2.925 -6.6012197 0.74015999
-2.9400001 -6.6012197 0.74599999
-2.9549999 -6.6012197 0.74454004
-2.97 -6.6012197 0.74381
-2.9850001 -6.6012197 0.74162
-3 -6.6012197 0.74015999
-3.0150001 -6.6012197 0.74307996
-3.03 -6.6012197 0.74526995
-3.0449998 -6.6012197 0.74599999
-3.0599999 -6.6012197 0.74965
-3.075 -6.6012197 0.75621998
-3.0899999 -6.6012197 0.76571
-3.105 -6.6012197 0.78104001
-3.1199999 -6.6012197 0.80513006
-3.1350002 -6.6012197 0.82192004
-3.1500001 -6.6012197 0.84892994
-3.165 -6.6012197 0.87448007
-3.1800003 -6.6012197 0.89638001
-5.085 -6.6012197 0.44816002
-5.0999999 -6.6012197 0.42333999
-5.1150002 -6.6012197 0.40071002
-5.1300001 -6.6012197 0.38027
-5.145 -6.6012197 0.35690999
-5.1600003 -6.6012197 0.33866
-5.1750002 -6.6012197 0.32479
-5.1900001 -6.6012197 0.31529999
-5.2049999 -6.6012197 0.31018999
-5.2200003 -6.6012197 0.31603
-5.2350001 -6.6012197 0.31676
-5.25 -6.6012197 0.31676
-5.2649999 -6.6012197 0.31749001
-5.2799997 -6.6012197 0.31529999
-5.2950001 -6.6012197 0.31457001
-5.3099999 -6.6012197 0.31457001
-5.3249998 -6.6012197 0.31092
-5.3399997 -6.6012197 0.31238002
-5.355 -6.6012197 0.31603
-5.3699999 -6.6012197 0.31457001
-5.3849998 -6.6012197 0.31310999
-5.4000001 -6.6012197 0.31603
-5.415 -6.6012197 0.31676
-5.4299998 -6.6012197 0.31895
-5.4450002 -6.6012197 0.32259998
-5.46 -6.6012197 0.32405999
-5.4749999 -6.6012197 0.32479
-5.4900002 -6.6012197 0.32333001
-5.5050001 -6.6012197 0.32552001
-5.52 -6.6012197 0.32552001
-5.5349998 -6.6012197 0.32771
-5.5500002 -6.6012197 0.32697999
-5.5650001 -6.6012197 0.32333001
-5.5799999 -6.6012197 0.32187
-5.5950003 -6.6012197 0.32552001
-5.6100001 -6.6012197 0.32625002
-5.625 -6.6012197 0.32697999
-5.6400003 -6.6012197 0.32844001
-5.6550002 -6.6012197 0.32625002
-5.6700001 -6.6012197 0.32625002
-5.6849999 -6.6012197 0.32625002
-5.6999998 -6.6012197 0.3299
-5.7149997 -6.6012197 0.32771
-5.73 -6.6012197 0.33063
-5.7449999 -6.6012197 0.33136001
-5.7599998 -6.6012197 0.33282
-5.7750001 -6.6012197 0.33136001
-5.79 -6.6012197 0.32844001
-5.8049998 -6.6012197 0.32771
-5.8200002 -6.6012197 0.33136001
-5.835 -6.6012197 0.33866
-5.8499999 -6.6012197 0.34377
-5.8649998 -6.6012197 0.35764
-5.8800001 -6.6012197 0.39998001
-5.9850001 -6.6012197 0.40362999
-6 -6.6012197 0.36420998
-6.0150003 -6.6012197 0.36567
-6.0300002 -6.6012197 0.3664
-6.0450001 -6.6012197 0.36859
-6.0599999 -6.6012197 0.37369999
-6.0749998 -6.6012197 0.37443
-6.0899997 -6.6012197 0.37735
-6.105 -6.6012197 0.37661999
-6.1199999 -6.6012197 0.37443
-6.1349998 -6.6012197 0.37443
-6.1500001 -6.6012197 0.38027
-6.165 -6.6012197 0.38464999
-6.1799998 -6.6012197 0.38464999
-6.1949997 -6.6012197 0.38538
-6.21 -6.6012197 0.38756999
-6.2249999 -6.6012197 0.38099998
-6.2399998 -6.6012197 0.37807998
-6.2550001 -6.6012197 0.38391998
-6.2700005 -6.6012197 0.3883
-6.2849998 -6.6012197 0.39268002
-6.3000002 -6.6012197 0.39706001
-6.3150005 -6.6012197 0.39559999
-6.3299999 -6.6012197 0.39049
-6.3450003 -6.6012197 0.38756999
-6.3600006 -6.6012197 0.38538
-6.375 -6.6012197 0.39122003
1.6650001 -6.507586 0.75549001
1.65 -6.507586 0.74162
1.6349999 -6.507586 0.73139995
1.62 -6.507586 0.72847998
1.605 -6.507586 0.73139995
1.5900002 -6.507586 0.73286003
1.575 -6.507586 0.73067003
1.5599999 -6.507586 0.72994
1.545 -6.507586 0.72994
1.53 -6.507586 0.72921002
1.515 -6.507586 0.73067003
1.5 -6.507586 0.72921002
1.485 -6.507586 0.72921002
1.47 -6.507586 0.73067003
1.455 -6.507586 0.73359001
1.4399999 -6.507586 0.73286003
1.425 -6.507586 0.72409999
1.4100001 -6.507586 0.72409999
1.395 -6.507586 0.72483003
1.38 -6.507586 0.72775
1.365 -6.507586 0.73067003
1.35 -6.507586 0.73067003
1.3349999 -6.507586 0.72775
1.3199999 -6.507586 0.73139995
1.3050001 -6.507586 0.73286003
1.2900001 -6.507586 0.72628999
1.275 -6.507586 0.72191
1.26 -6.507586 0.72044998
1.245 -6.507586 0.72118002
1.23 -6.507586 0.72118002
1.215 -6.507586 0.72044998
1.2 -6.507586 0.72409999
1.1850001 -6.507586 0.72775
1.17 -6.507586 0.72483003
1.155 -6.507586 0.73212999
1.14 -6.507586 0.72336996
1.125 -6.507586 0.72556001
1.11 -6.507586 0.72556001
1.095 -6.507586 0.71972001
1.08 -6.507586 0.71899003
1.0649999 -6.507586 0.72118002
1.05 -6.507586 0.72191
1.035 -6.507586 0.72336996
1.02 -6.507586 0.72191
1.005 -6.507586 0.71899003
0.99000001 -6.507586 0.72191
0.97500002 -6.507586 0.71460998
0.96000004 -6.507586 0.71825999
0.94499999 -6.507586 0.71972001
0.93000001 -6.507586 0.71460998
0.91500002 -6.507586 0.71388
0.89999998 -6.507586 0.71534002
0.88499999 -6.507586 0.71315002
0.87 -6.507586 0.70804
0.85500002 -6.507586 0.70731002
0.83999997 -6.507586 0.70804
0.82499999 -6.507586 0.70731002
0.81 -6.507586 0.70365995
0.79500008 -6.507586 0.7022
0.77999997 -6.507586 0.69782001
0.76499999 -6.507586 0.7022
0.75 -6.507586 0.70877004
0.73500001 -6.507586 0.70877004
0.71999997 -6.507586 0.70804
0.70500004 -6.507586 0.71825999
0.69 -6.507586 0.72921002
0.67500001 -6.507586 0.72702003
0.65999997 -6.507586 0.68541002
0.64500004 -6.507586 0.64306998
0.63 -6.507586 0.63577002
0.61500001 -6.507586 0.63284999
0.60000002 -6.507586 0.63066
0.58499998 -6.507586 0.62847
0.56999999 -6.507586 0.62847
0.55500001 -6.507586 0.63284999
0.54000002 -6.507586 0.63503999
0.52499998 -6.507586 0.63212001
0.50999999 -6.507586 0.63212001
0.495 -6.507586 0.63066
0.48000002 -6.507586 0.63284999
0.465 -6.507586 0.63212001
0.44999999 -6.507586 0.63138998
0.435 -6.507586 0.63138998
0.41999999 -6.507586 0.63212001
0.405 -6.507586 0.63066
0.38999999 -6.507586 0.62919998
0.375 -6.507586 0.62847
0.35999998 -6.507586 0.63284999
0.345 -6.507586 0.62700999
0.32999998 -6.507586 0.62555003
0.315 -6.507586 0.62555003
0.30000001 -6.507586 0.62409002
0.285 -6.507586 0.62481999
0.27000001 -6.507586 0.62774003
0.255 -6.507586 0.62847
0.24000001 -6.507586 0.62774003
0.22499999 -6.507586 0.62409002
0.20999999 -6.507586 0.62700999
0.19499999 -6.507586 0.62555003
0.17999999 -6.507586 0.62628001
0.16499999 -6.507586 0.62847
0.15000001 -6.507586 0.62847
0.13500001 -6.507586 0.62628001
0.12 -6.507586 0.62555003
0.105 -6.507586 0.62847
0.089999996 -6.507586 0.62628001
0.075000003 -6.507586 0.62993002
0.060000002 -6.507586 0.63212001
0.044999998 -6.507586 0.62700999
0.030000001 -6.507586 0.62919998
0.015000001 -6.507586 0.62919998
-0 -6.507586 0.62555003
-0.015000001 -6.507586 0.62116998
-0.030000001 -6.507586 0.62044001
-0.044999998 -6.507586 0.62409002
-0.060000002 -6.507586 0.62847
-0.075000003 -6.507586 0.63212001
-0.089999996 -6.507586 0.63138998
-0.105 -6.507586 0.62993002
-0.12 -6.507586 0.63066
-0.13500001 -6.507586 0.62774003
-0.15000001 -6.507586 0.62993002
-0.16499999 -6.507586 0.63066
-0.17999999 -6.507586 0.62628001
-0.19499999 -6.507586 0.62263
-0.20999999 -6.507586 0.62555003
-0.22499999 -6.507586 0.63358003
-0.24000001 -6.507586 0.63066
-0.255 -6.507586 0.62993002
-0.27000001 -6.507586 0.62700999
-0.285 -6.507586 0.63066
-0.30000001 -6.507586 0.62919998
-0.315 -6.507586 0.62919998
-0.32999998 -6.507586 0.63138998
-0.345 -6.507586 0.62993002
-0.35999998 -6.507586 0.62555003
-0.375 -6.507586 0.62335998
-0.38999999 -6.507586 0.62847
-0.405 -6.507586 0.62774003
-0.41999999 -6.507586 0.62919998
-0.435 -6.507586 0.63138998
-0.44999999 -6.507586 0.63212001
-0.465 -6.507586 0.63284999
-0.48000002 -6.507586 0.63138998
-0.495 -6.507586 0.63138998
-0.50999999 -6.507586 0.63577002
-0.52499998 -6.507586 0.63358003
-0.54000002 -6.507586 0.63358003
-0.55500001 -6.507586 0.63942003
-0.56999999 -6.507586 0.65256
-0.58499998 -6.507586 0.67299998
-0.60000002 -6.507586 0.69490004
-0.61500001 -6.507586 0.71899003
-0.63 -6.507586 0.74818999
-0.64500004 -6.507586 0.75694996
-0.65999997 -6.507586 0.73505002
-0.67500001 -6.507586 0.70949996
-0.69 -6.507586 0.70657998
-0.70500004 -6.507586 0.70657998
-0.71999997 -6.507586 0.70512003
-0.73500001 -6.507586 0.70438999
-0.75 -6.507586 0.71022999
-0.76499999 -6.507586 0.70949996
-0.77999997 -6.507586 0.70512003
-0.79500008 -6.507586 0.70512003
-0.81 -6.507586 0.70657998
-0.82499999 -6.507586 0.70438999
-0.83999997 -6.507586 0.70804
-0.85500002 -6.507586 0.71022999
-0.87 -6.507586 0.71169001
-0.88499999 -6.507586 0.70877004
-0.89999998 -6.507586 0.71096003
-0.91500002 -6.507586 0.71022999
-0.93000001 -6.507586 0.70731002
-0.94499999 -6.507586 0.70877004
-0.96000004 -6.507586 0.71315002
-0.97500002 -6.507586 0.71315002
-0.99000001 -6.507586 0.71169001
-1.005 -6.507586 0.71241999
-1.02 -6.507586 0.71825999
-1.035 -6.507586 0.71680003
-1.05 -6.507586 0.71899003
-1.0649999 -6.507586 0.71534002
-1.08 -6.507586 0.71534002
-1.095 -6.507586 0.71460998
-1.11 -6.507586 0.70949996
-1.125 -6.507586 0.70804
-1.14 -6.507586 0.71315002
-1.155 -6.507586 0.71241999
-1.17 -6.507586 0.71752995
-1.1850001 -6.507586 0.71534002
-1.2 -6.507586 0.71315002
-1.215 -6.507586 0.71315002
-1.23 -6.507586 0.71022999
-1.245 -6.507586 0.71096003
-1.26 -6.507586 0.71388
-1.275 -6.507586 0.71315002
-1.2900001 -6.507586 0.71022999
-1.3050001 -6.507586 0.71096003
-1.3199999 -6.507586 0.70949996
-1.3349999 -6.507586 0.71460998
-1.35 -6.507586 0.70365995
-1.365 -6.507586 0.70949996
-1.38 -6.507586 0.71096003
-1.395 -6.507586 0.71315002
-1.4100001 -6.507586 0.71169001
-1.425 -6.507586 0.71096003
-1.4399999 -6.507586 0.71169001
-1.455 -6.507586 0.71169001
-1.47 -6.507586 0.71607
-1.485 -6.507586 0.71534002
-1.5 -6.507586 0.71460998
-1.515 -6.507586 0.71460998
-1.53 -6.507586 0.71972001
-1.545 -6.507586 0.72118002
-1.5599999 -6.507586 0.72191
-1.575 -6.507586 0.72409999
-1.5900002 -6.507586 0.72336996
-1.605 -6.507586 0.72118002
-1.62 -6.507586 0.72264004
-1.6349999 -6.507586 0.72191
-1.65 -6.507586 0.72044998
-1.6650001 -6.507586 0.71680003
-1.6799999 -6.507586 0.71899003
-1.6950001 -6.507586 0.71680003
-1.71 -6.507586 0.71534002
-1.7249999 -6.507586 0.72336996
-1.74 -6.507586 0.72775
-1.7550001 -6.507586 0.72483003
-1.77 -6.507586 0.72264004
-1.7850001 -6.507586 0.72118002
-1.8 -6.507586 0.71899003
-1.8149999 -6.507586 0.72702003
-1.83 -6.507586 0.72483003
-1.8449999 -6.507586 0.72336996
-1.86 -6.507586 0.72264004
-1.8750001 -6.507586 0.72118002
-1.89 -6.507586 0.72264004
-1.905 -6.507586 0.72483003
-1.9200001 -6.507586 0.72409999
-1.9349999 -6.507586 0.72628999
-1.95 -6.507586 0.72847998
-1.9649999 -6.507586 0.73067003
-1.98 -6.507586 0.72994
-1.995 -6.507586 0.72921002
-2.01 -6.507586 0.72775
-2.0250001 -6.507586 0.73067003
-2.04 -6.507586 0.73067003
-2.0550001 -6.507586 0.72702003
-2.0699999 -6.507586 0.72628999
-2.085 -6.507586 0.72921002
-2.0999999 -6.507586 0.72775
-2.115 -6.507586 0.73212999
-2.1299999 -6.507586 0.72994
-2.145 -6.507586 0.72921002
-2.1600001 -6.507586 0.72921002
-2.175 -6.507586 0.72994
-2.1900001 -6.507586 0.72702003
-2.2050002 -6.507586 0.72409999
-2.22 -6.507586 0.72409999
-2.2350001 -6.507586 0.72847998
-2.25 -6.507586 0.73212999
-2.2649999 -6.507586 0.73139995
-2.28 -6.507586 0.72775
-2.2949998 -6.507586 0.73505002
-2.3099999 -6.507586 0.73286003
-2.325 -6.507586 0.73067003
-2.3399999 -6.507586 0.72702003
-2.355 -6.507586 0.72556001
-2.3700001 -6.507586 0.72921002
-2.385 -6.507586 0.73505002
-2.4000001 -6.507586 0.73651004
-2.4150002 -6.507586 0.73578
-2.4300001 -6.507586 0.73212999
-2.4449999 -6.507586 0.73505002
-2.46 -6.507586 0.73578
-2.4749999 -6.507586 0.73359001
-2.49 -6.507586 0.73286003
-2.5049999 -6.507586 0.73578
-2.52 -6.507586 0.73578
-2.5350001 -6.507586 0.73431998
-2.55 -6.507586 0.73723996
-2.5650001 -6.507586 0.73870003
-2.5800002 -6.507586 0.73359001
-2.595 -6.507586 0.73651004
-2.6100001 -6.507586 0.73796999
-2.625 -6.507586 0.73870003
-2.6399999 -6.507586 0.73431998
-2.655 -6.507586 0.73212999
-2.6699998 -6.507586 0.73578
-2.6849999 -6.507586 0.73870003
-2.7 -6.507586 0.73651004
-2.7149999 -6.507586 0.73286003
-2.73 -6.507586 0.73505002
-2.7450001 -6.507586 0.74089003
-2.76 -6.507586 0.74089003
-2.7750001 -6.507586 0.74015999
-2.79 -6.507586 0.73578
-2.8050001 -6.507586 0.73796999
-2.8200002 -6.507586 0.74015999
-2.835 -6.507586 0.74015999
-2.8499999 -6.507586 0.73870003
-2.865 -6.507586 0.73723996
-2.8799999 -6.507586 0.73870003
-2.895 -6.507586 0.74089003
-2.9100001 -6.507586 0.73796999
-2.925 -6.507586 0.74526995
-2.9400001 -6.507586 0.74673003
-2.9549999 -6.507586 0.74526995
-2.97 -6.507586 0.74381
-2.9850001 -6.507586 0.74162
-3 -6.507586 0.74381
-3.0150001 -6.507586 0.74381
-3.03 -6.507586 0.73651004
-3.0449998 -6.507586 0.74234998
-3.0599999 -6.507586 0.74673003
-3.075 -6.507586 0.74965
-3.0899999 -6.507586 0.76352
-3.105 -6.507586 0.78104001
-3.1199999 -6.507586 0.80001998
-3.1350002 -6.507586 0.82411003
-3.1500001 -6.507586 0.84819996
-3.165 -6.507586 0.87083
-3.1800003 -6.507586 0.89419001
-5.085 -6.507586 0.44232002
-5.0999999 -6.507586 0.42480001
-5.1150002 -6.507586 0.40217
-5.1300001 -6.507586 0.37735
-5.145 -6.507586 0.35399002
-5.1600003 -6.507586 0.33428001
-5.1750002 -6.507586 0.31967998
-5.1900001 -6.507586 0.31238002
-5.2049999 -6.507586 0.31165001
-5.2200003 -6.507586 0.31165001
-5.2350001 -6.507586 0.30946001
-5.25 -6.507586 0.31018999
-5.2649999 -6.507586 0.30946001
-5.2799997 -6.507586 0.30873001
-5.2950001 -6.507586 0.31092
-5.3099999 -6.507586 0.31165001
-5.3249998 -6.507586 0.31092
-5.3399997 -6.507586 0.31895
