# .PCD v0.7 - Point Cloud Data file format
VERSION 0.7
FIELDS x y z
SIZE 4 4 4
TYPE F F F
COUNT 1 1 1
WIDTH 1711
HEIGHT 1
VIEWPOINT 0 0 0 1 0 0 0
POINTS 1711
DATA ascii
3.8849998 0.795874 2.1505198
3.8699999 0.795874 2.14833
3.855 0.795874 2.14833
3.8400002 0.795874 2.14906
3.8249998 0.795874 2.1454101
3.8099999 0.795874 2.1417599
3.7950001 0.795874 2.1410298
3.78 0.795874 2.14395
3.7650001 0.795874 2.1468701
3.7500002 0.795874 2.1476002
3.7349999 0.795874 2.1432199
3.72 0.795874 2.1417599
3.7050002 0.795874 2.1505198
3.6899998 0.795874 2.1505198
3.675 0.795874 2.1505198
3.6600001 0.795874 2.1432199
3.645 0.795874 2.14833
3.6299999 0.795874 2.14979
3.615 0.795874 2.1468701
3.5999999 0.795874 2.1424901
3.585 0.795874 2.1417599
3.5700002 0.795874 2.14395
3.5549998 0.795874 2.1424901
3.54 0.795874 2.1432199
3.5250001 0.795874 2.1454101
3.5100002 0.795874 2.14468
3.4949999 0.795874 2.14468
3.48 0.795874 2.14833
3.4650002 0.795874 2.1461399
3.4499998 0.795874 2.1461399
3.4349999 0.795874 2.1461399
3.4200001 0.795874 2.1454101
3.405 0.795874 2.14468
3.3900001 0.795874 2.1476002
3.3750002 0.795874 2.1476002
3.3599999 0.795874 2.14395
3.345 0.795874 2.14395
3.3300002 0.795874 2.1454101
3.3149998 0.795874 2.1417599
3.3 0.795874 2.13957
3.2850001 0.795874 2.1468701
3.2699997 0.795874 2.14468
3.2549999 0.795874 2.1417599
3.24 0.795874 2.1147501
3.105 0.795874 2.14833
3.0899999 0.795874 2.1468701
3.075 0.795874 2.1417599
3.0599999 0.795874 2.14395
3.0449998 0.795874 2.1432199
3.03 0.795874 2.1381102
3.0150001 0.795874 2.1366498
3 0.795874 2.13957
2.9850001 0.795874 2.1410298
2.97 0.795874 2.1424901
2.9549999 0.795874 2.1330001
2.9400001 0.795874 2.1366498
2.925 0.795874 2.1366498
2.9100001 0.795874 2.13519
2.895 0.795874 2.13884
2.8799999 0.795874 2.1410298
2.865 0.795874 2.13884
2.8499999 0.795874 2.1366498
2.835 0.795874 2.1381102
2.8200002 0.795874 2.1403
2.8050001 0.795874 2.13957
2.79 0.795874 2.13446
2.7750001 0.795874 2.1366498
2.76 0.795874 2.13592
2.7450001 0.795874 2.13519
2.73 0.795874 2.1373799
2.7149999 0.795874 2.1403
2.7 0.795874 2.1381102
2.6849999 0.795874 2.1330001
2.6699998 0.795874 2.1286201
2.655 0.795874 2.12643
2.6399999 0.795874 2.1271598
2.625 0.795874 2.1286201
2.6100001 0.795874 2.1271598
2.595 0.795874 2.1257
2.5800002 0.795874 2.12643
2.5650001 0.795874 2.1242402
2.55 0.795874 2.13008
2.5350001 0.795874 2.1271598
2.52 0.795874 2.1271598
2.5049999 0.795874 2.13081
2.49 0.795874 2.13081
2.4749999 0.795874 2.1257
2.46 0.795874 2.1242402
2.4449999 0.795874 2.12497
2.4300001 0.795874 2.12497
2.4150002 0.795874 2.1257
2.4000001 0.795874 2.12497
2.385 0.795874 2.1242402
2.3700001 0.795874 2.12132
2.355 0.795874 2.1227798
2.3399999 0.795874 2.12059
2.325 0.795874 2.12497
2.3099999 0.795874 2.12132
2.2949998 0.795874 2.1257
2.28 0.795874 2.1227798
2.2649999 0.795874 2.1227798
2.25 0.795874 2.1242402
2.2350001 0.795874 2.1257
2.22 0.795874 2.1257
2.2050002 0.795874 2.12205
2.1900001 0.795874 2.1227798
2.175 0.795874 2.1235101
2.1600001 0.795874 2.12205
2.145 0.795874 2.1235101
2.1299999 0.795874 2.12132
2.115 0.795874 2.1176701
2.0999999 0.795874 2.11694
2.085 0.795874 2.1191301
2.0699999 0.795874 2.12205
2.0550001 0.795874 2.12205
2.04 0.795874 2.1140199
2.0250001 0.795874 2.11183
2.01 0.795874 2.1111
1.995 0.795874 2.1132898
1.98 0.795874 2.1147501
1.9649999 0.795874 2.11256
1.95 0.795874 2.1103702
1.9349999 0.795874 2.11183
1.9200001 0.795874 2.1140199
1.905 0.795874 2.1140199
1.89 0.795874 2.1132898
1.8750001 0.795874 2.1183999
1.86 0.795874 2.1147501
1.8449999 0.795874 2.1132898
1.83 0.795874 2.1111
1.8149999 0.795874 2.1154799
1.8 0.795874 2.1089098
1.7850001 0.795874 2.10307
1.77 0.795874 2.1089098
1.7550001 0.795874 2.10745
1.74 0.795874 2.1052601
1.7249999 0.795874 2.1059899
1.71 0.795874 2.1052601
1.6950001 0.795874 2.1059899
1.6799999 0.795874 2.1038001
1.6650001 0.795874 2.1045299
1.65 0.795874 2.1016099
1.6349999 0.795874 2.1045299
1.62 0.795874 2.10818
1.605 0.795874 2.1052601
6.8400002 0.88950807 2.0921202
6.8249998 0.88950807 2.0921202
6.8099999 0.88950807 2.08482
6.7950001 0.88950807 2.0811698
6.7800002 0.88950807 2.0738699
6.7649999 0.88950807 2.0775201
6.7500005 0.88950807 2.0826302
6.7350001 0.88950807 2.0913901
6.7199998 0.88950807 2.0965002
6.7050004 0.88950807 2.09723
6.6900001 0.88950807 2.0950398
6.6749997 0.88950807 2.09796
6.6600003 0.88950807 2.1038001
6.645 0.88950807 2.1059899
6.6299996 0.88950807 2.1045299
6.6150002 0.88950807 2.10307
6.5999999 0.88950807 2.0994198
6.5849996 0.88950807 2.10234
6.5700002 0.88950807 2.1038001
6.5549998 0.88950807 2.1038001
6.5399995 0.88950807 2.10745
6.5250001 0.88950807 2.11256
6.5099998 0.88950807 2.1140199
6.4949999 0.88950807 2.11183
6.48 0.88950807 2.1111
6.4650002 0.88950807 2.1103702
6.4499998 0.88950807 2.11256
6.4349999 0.88950807 2.1140199
6.4200001 0.88950807 2.1132898
6.4049997 0.88950807 2.11256
6.3900003 0.88950807 2.1198602
6.375 0.88950807 2.1176701
6.3600006 0.88950807 2.12059
6.3450003 0.88950807 2.11183
6.3299999 0.88950807 2.1147501
6.3150005 0.88950807 2.11694
6.3000002 0.88950807 2.12205
6.2849998 0.88950807 2.12497
6.2700005 0.88950807 2.1227798
6.2550001 0.88950807 2.12132
6.2399998 0.88950807 2.1227798
6.2249999 0.88950807 2.1242402
6.21 0.88950807 2.12643
6.1949997 0.88950807 2.13008
6.1799998 0.88950807 2.1330001
6.165 0.88950807 2.13008
6.1500001 0.88950807 2.1293499
6.1349998 0.88950807 2.13519
6.1199999 0.88950807 2.1315401
6.105 0.88950807 2.12643
6.0899997 0.88950807 2.1337299
6.0749998 0.88950807 2.1330001
6.0599999 0.88950807 2.13592
6.0450001 0.88950807 2.13592
6.0300002 0.88950807 2.13519
6.0150003 0.88950807 2.1373799
6 0.88950807 2.1330001
5.9850001 0.88950807 2.1089098
5.7750001 0.88950807 2.1600099
5.7599998 0.88950807 2.1563601
5.7449999 0.88950807 2.1505198
5.73 0.88950807 2.14979
5.7149997 0.88950807 2.1519802
5.6999998 0.88950807 2.1548998
5.6849999 0.88950807 2.15417
5.6700001 0.88950807 2.1556299
5.6550002 0.88950807 2.15271
5.6400003 0.88950807 2.1468701
5.625 0.88950807 2.1505198
5.6100001 0.88950807 2.1512499
5.5950003 0.88950807 2.15271
5.5799999 0.88950807 2.1468701
5.5650001 0.88950807 2.1468701
5.5500002 0.88950807 2.1505198
5.5349998 0.88950807 2.1512499
5.52 0.88950807 2.14979
5.5050001 0.88950807 2.14833
5.4900002 0.88950807 2.1468701
5.4749999 0.88950807 2.1468701
5.46 0.88950807 2.1468701
5.4450002 0.88950807 2.14979
5.4299998 0.88950807 2.15344
5.415 0.88950807 2.1454101
5.4000001 0.88950807 2.14468
5.3849998 0.88950807 2.14468
5.3699999 0.88950807 2.1461399
5.355 0.88950807 2.1468701
5.3399997 0.88950807 2.14979
5.3249998 0.88950807 2.1519802
5.3099999 0.88950807 2.1505198
5.2950001 0.88950807 2.1468701
5.2799997 0.88950807 2.14833
5.2649999 0.88950807 2.1476002
5.25 0.88950807 2.1424901
5.2350001 0.88950807 2.14395
5.2200003 0.88950807 2.13957
5.2049999 0.88950807 2.1410298
5.1900001 0.88950807 2.1461399
5.1750002 0.88950807 2.14833
5.1600003 0.88950807 2.1417599
5.145 0.88950807 2.1468701
5.1300001 0.88950807 2.14833
5.1150002 0.88950807 2.1468701
5.0999999 0.88950807 2.14395
5.085 0.88950807 2.14979
5.0700002 0.88950807 2.1548998
5.0549998 0.88950807 2.15344
5.04 0.88950807 2.1505198
5.0250001 0.88950807 2.1519802
5.0099998 0.88950807 2.1512499
4.9949999 0.88950807 2.1563601
4.98 0.88950807 2.1614699
4.9649997 0.88950807 2.1622
4.9499998 0.88950807 2.1548998
4.9349999 0.88950807 2.15782
4.9200001 0.88950807 2.1512499
4.9049997 0.88950807 2.15344
4.8899999 0.88950807 2.1563601
4.875 0.88950807 2.15782
4.8600001 0.88950807 2.1548998
4.8450003 0.88950807 2.15271
4.8300004 0.88950807 2.1548998
4.8150001 0.88950807 2.1592801
4.8000002 0.88950807 2.15855
4.7850003 0.88950807 2.1519802
4.77 0.88950807 2.1476002
4.7550001 0.88950807 2.1505198
4.7400002 0.88950807 2.1563601
4.7249999 0.88950807 2.14833
4.71 0.88950807 2.15417
4.6950002 0.88950807 2.1592801
4.6799998 0.88950807 2.15344
4.665 0.88950807 2.14833
4.6500001 0.88950807 2.1468701
4.6349998 0.88950807 2.1512499
4.6199999 0.88950807 2.15344
4.605 0.88950807 2.15271
4.5899997 0.88950807 2.15271
4.5749998 0.88950807 2.1505198
4.5599999 0.88950807 2.14833
4.5449996 0.88950807 2.1468701
4.5299997 0.88950807 2.14979
4.5149999 0.88950807 2.1548998
4.5 0.88950807 2.1519802
4.4850001 0.88950807 2.15271
4.4700003 0.88950807 2.14906
4.4549999 0.88950807 2.14979
4.4400001 0.88950807 2.15271
4.4250002 0.88950807 2.15344
4.4100003 0.88950807 2.15782
4.395 0.88950807 2.1548998
4.3800001 0.88950807 2.1570899
4.3650002 0.88950807 2.1548998
4.3499999 0.88950807 2.1512499
4.335 0.88950807 2.15271
4.3200002 0.88950807 2.1556299
4.3049998 0.88950807 2.15417
4.29 0.88950807 2.15271
4.2750001 0.88950807 2.14979
4.2599998 0.88950807 2.1476002
4.2449999 0.88950807 2.1468701
4.23 0.88950807 2.1512499
4.2149997 0.88950807 2.1556299
4.1999998 0.88950807 2.15344
4.1849999 0.88950807 2.15271
4.1700001 0.88950807 2.1454101
4.1549997 0.88950807 2.1512499
4.1399999 0.88950807 2.1519802
4.125 0.88950807 2.15271
4.1100001 0.88950807 2.15271
4.0950003 0.88950807 2.1505198
4.0799999 0.88950807 2.15271
4.0650001 0.88950807 2.1556299
4.0500002 0.88950807 2.14979
4.0350003 0.88950807 2.14395
4.02 0.88950807 2.1454101
4.0050001 0.88950807 2.1468701
3.99 0.88950807 2.14979
3.9749999 0.88950807 2.1461399
3.96 0.88950807 2.14395
3.9450002 0.88950807 2.14979
3.9299998 0.88950807 2.1476002
3.915 0.88950807 2.15344
3.9000001 0.88950807 2.1519802
3.8849998 0.88950807 2.1505198
3.8699999 0.88950807 2.1461399
3.855 0.88950807 2.1461399
3.8400002 0.88950807 2.14906
3.8249998 0.88950807 2.14906
3.8099999 0.88950807 2.14468
3.7950001 0.88950807 2.14395
3.78 0.88950807 2.14833
3.7650001 0.88950807 2.14906
3.7500002 0.88950807 2.1454101
3.7349999 0.88950807 2.14833
3.72 0.88950807 2.1476002
3.7050002 0.88950807 2.1468701
3.6899998 0.88950807 2.1461399
3.675 0.88950807 2.1454101
3.6600001 0.88950807 2.14906
3.645 0.88950807 2.1468701
3.6299999 0.88950807 2.1417599
3.615 0.88950807 2.1461399
3.5999999 0.88950807 2.1461399
3.585 0.88950807 2.1432199
3.5700002 0.88950807 2.1454101
3.5549998 0.88950807 2.1476002
3.54 0.88950807 2.1468701
3.5250001 0.88950807 2.1468701
3.5100002 0.88950807 2.1476002
3.4949999 0.88950807 2.14833
3.48 0.88950807 2.14395
3.4650002 0.88950807 2.14395
3.4499998 0.88950807 2.14468
3.4349999 0.88950807 2.1468701
3.4200001 0.88950807 2.14468
3.405 0.88950807 2.14395
3.3900001 0.88950807 2.14468
3.3750002 0.88950807 2.1403
3.3599999 0.88950807 2.1417599
3.345 0.88950807 2.1468701
3.3300002 0.88950807 2.1476002
3.3149998 0.88950807 2.1454101
3.3 0.88950807 2.1454101
3.2850001 0.88950807 2.1432199
3.2699997 0.88950807 2.1476002
3.2549999 0.88950807 2.1454101
3.24 0.88950807 2.1432199
3.2249999 0.88950807 2.1432199
3.21 0.88950807 2.10672
3.0899999 0.88950807 2.14833
3.075 0.88950807 2.1519802
3.0599999 0.88950807 2.1476002
3.0449998 0.88950807 2.14979
3.03 0.88950807 2.14395
3.0150001 0.88950807 2.1417599
3 0.88950807 2.14395
2.9850001 0.88950807 2.1461399
2.97 0.88950807 2.1424901
2.9549999 0.88950807 2.1417599
2.9400001 0.88950807 2.1468701
2.925 0.88950807 2.1461399
2.9100001 0.88950807 2.1424901
2.895 0.88950807 2.13592
2.8799999 0.88950807 2.1330001
2.865 0.88950807 2.1366498
2.8499999 0.88950807 2.1403
2.835 0.88950807 2.1381102
2.8200002 0.88950807 2.1366498
2.8050001 0.88950807 2.13446
2.79 0.88950807 2.1381102
2.7750001 0.88950807 2.1381102
2.76 0.88950807 2.1278899
2.7450001 0.88950807 2.1278899
2.73 0.88950807 2.1286201
2.7149999 0.88950807 2.13519
2.7 0.88950807 2.1381102
2.6849999 0.88950807 2.1403
2.6699998 0.88950807 2.1330001
2.655 0.88950807 2.1271598
2.6399999 0.88950807 2.1293499
2.625 0.88950807 2.1293499
2.6100001 0.88950807 2.12643
2.595 0.88950807 2.12497
2.5800002 0.88950807 2.1257
2.5650001 0.88950807 2.13008
2.55 0.88950807 2.1257
2.5350001 0.88950807 2.1293499
2.52 0.88950807 2.13519
2.5049999 0.88950807 2.13081
2.49 0.88950807 2.1293499
2.4749999 0.88950807 2.1271598
2.46 0.88950807 2.12643
2.4449999 0.88950807 2.1293499
2.4300001 0.88950807 2.1278899
2.4150002 0.88950807 2.1242402
2.4000001 0.88950807 2.1235101
2.385 0.88950807 2.12497
2.3700001 0.88950807 2.13081
2.355 0.88950807 2.12643
2.3399999 0.88950807 2.1183999
2.325 0.88950807 2.12643
2.3099999 0.88950807 2.1235101
2.2949998 0.88950807 2.1286201
2.28 0.88950807 2.1315401
2.2649999 0.88950807 2.12132
2.25 0.88950807 2.1191301
2.2350001 0.88950807 2.12497
2.22 0.88950807 2.1271598
2.2050002 0.88950807 2.12132
2.1900001 0.88950807 2.11694
2.175 0.88950807 2.1191301
2.1600001 0.88950807 2.1242402
2.145 0.88950807 2.12643
2.1299999 0.88950807 2.1198602
2.115 0.88950807 2.1191301
2.0999999 0.88950807 2.12205
2.085 0.88950807 2.1242402
2.0699999 0.88950807 2.1183999
2.0550001 0.88950807 2.1176701
2.04 0.88950807 2.1111
2.0250001 0.88950807 2.10818
2.01 0.88950807 2.1103702
1.995 0.88950807 2.1089098
1.98 0.88950807 2.1154799
1.9649999 0.88950807 2.11694
1.95 0.88950807 2.11256
1.9349999 0.88950807 2.1096401
1.9200001 0.88950807 2.10745
1.905 0.88950807 2.1103702
1.89 0.88950807 2.1132898
1.8750001 0.88950807 2.1154799
1.86 0.88950807 2.1103702
1.8449999 0.88950807 2.1103702
1.83 0.88950807 2.10745
1.8149999 0.88950807 2.1103702
1.8 0.88950807 2.11256
1.7850001 0.88950807 2.1132898
1.77 0.88950807 2.1132898
1.7550001 0.88950807 2.1111
1.74 0.88950807 2.1103702
1.7249999 0.88950807 2.1052601
1.71 0.88950807 2.1016099
1.6950001 0.88950807 2.1052601
1.6799999 0.88950807 2.10307
1.6650001 0.88950807 2.1052601
1.65 0.88950807 2.1052601
1.6349999 0.88950807 2.1038001
1.62 0.88950807 2.1008801
1.605 0.88950807 2.1052601
6.8400002 0.9831422 2.0950398
6.8249998 0.9831422 2.09358
6.8099999 0.9831422 2.0899301
6.7950001 0.9831422 2.0855498
6.7800002 0.9831422 2.07971
6.7649999 0.9831422 2.07971
6.7500005 0.9831422 2.0826302
6.7350001 0.9831422 2.0950398
6.7199998 0.9831422 2.1016099
6.7050004 0.9831422 2.10234
6.6900001 0.9831422 2.09869
6.6749997 0.9831422 2.0950398
6.6600003 0.9831422 2.09869
6.645 0.9831422 2.1038001
6.6299996 0.9831422 2.1045299
6.6150002 0.9831422 2.1052601
6.5999999 0.9831422 2.1045299
6.5849996 0.9831422 2.1089098
6.5700002 0.9831422 2.1140199
6.5549998 0.9831422 2.10745
6.5399995 0.9831422 2.1140199
6.5250001 0.9831422 2.11183
6.5099998 0.9831422 2.1111
6.4949999 0.9831422 2.1103702
6.48 0.9831422 2.1132898
6.4650002 0.9831422 2.1147501
6.4499998 0.9831422 2.1132898
6.4349999 0.9831422 2.1140199
6.4200001 0.9831422 2.1176701
6.4049997 0.9831422 2.12132
6.3900003 0.9831422 2.11694
6.375 0.9831422 2.1198602
6.3600006 0.9831422 2.1183999
6.3450003 0.9831422 2.1183999
6.3299999 0.9831422 2.1183999
6.3150005 0.9831422 2.1176701
6.3000002 0.9831422 2.12205
6.2849998 0.9831422 2.12643
6.2700005 0.9831422 2.1271598
6.2550001 0.9831422 2.12497
6.2399998 0.9831422 2.1235101
6.2249999 0.9831422 2.12497
6.21 0.9831422 2.1286201
6.1949997 0.9831422 2.1293499
6.1799998 0.9831422 2.12643
6.165 0.9831422 2.1293499
6.1500001 0.9831422 2.13081
6.1349998 0.9831422 2.12643
6.1199999 0.9831422 2.13081
6.105 0.9831422 2.1337299
6.0899997 0.9831422 2.13446
6.0749998 0.9831422 2.1315401
6.0599999 0.9831422 2.1322699
6.0450001 0.9831422 2.1337299
6.0300002 0.9831422 2.13081
6.0150003 0.9831422 2.13081
6 0.9831422 2.13446
5.9850001 0.9831422 2.13446
5.9700003 0.9831422 2.1278899
5.9549999 0.9831422 2.1016099
5.7449999 0.9831422 2.1570899
5.73 0.9831422 2.1512499
5.7149997 0.9831422 2.1505198
5.6999998 0.9831422 2.15344
5.6849999 0.9831422 2.14906
5.6700001 0.9831422 2.14979
5.6550002 0.9831422 2.1505198
5.6400003 0.9831422 2.14979
5.625 0.9831422 2.1468701
5.6100001 0.9831422 2.1505198
5.5950003 0.9831422 2.1461399
5.5799999 0.9831422 2.1461399
5.5650001 0.9831422 2.14979
5.5500002 0.9831422 2.1519802
5.5349998 0.9831422 2.15271
5.52 0.9831422 2.1519802
5.5050001 0.9831422 2.14833
5.4900002 0.9831422 2.1461399
5.4749999 0.9831422 2.1454101
5.46 0.9831422 2.1468701
5.4450002 0.9831422 2.1519802
5.4299998 0.9831422 2.14833
5.415 0.9831422 2.14979
5.4000001 0.9831422 2.1417599
5.3849998 0.9831422 2.1424901
5.3699999 0.9831422 2.1476002
5.355 0.9831422 2.1468701
5.3399997 0.9831422 2.1424901
5.3249998 0.9831422 2.1476002
5.3099999 0.9831422 2.1505198
5.2950001 0.9831422 2.1476002
5.2799997 0.9831422 2.1468701
5.2649999 0.9831422 2.1476002
5.25 0.9831422 2.14468
5.2350001 0.9831422 2.1476002
5.2200003 0.9831422 2.1454101
5.2049999 0.9831422 2.1432199
5.1900001 0.9831422 2.1424901
5.1750002 0.9831422 2.14468
5.1600003 0.9831422 2.1512499
5.145 0.9831422 2.14979
5.1300001 0.9831422 2.1424901
5.1150002 0.9831422 2.1410298
5.0999999 0.9831422 2.14395
5.085 0.9831422 2.14906
5.0700002 0.9831422 2.1548998
5.0549998 0.9831422 2.1556299
5.04 0.9831422 2.15344
5.0250001 0.9831422 2.15782
5.0099998 0.9831422 2.1600099
4.9949999 0.9831422 2.1622
4.98 0.9831422 2.15782
4.9649997 0.9831422 2.15271
4.9499998 0.9831422 2.1556299
4.9349999 0.9831422 2.15855
4.9200001 0.9831422 2.1570899
4.9049997 0.9831422 2.15271
4.8899999 0.9831422 2.14979
4.875 0.9831422 2.15271
4.8600001 0.9831422 2.1548998
4.8450003 0.9831422 2.15344
4.8300004 0.9831422 2.1512499
4.8150001 0.9831422 2.1505198
4.8000002 0.9831422 2.1505198
4.7850003 0.9831422 2.15344
4.77 0.9831422 2.1556299
4.7550001 0.9831422 2.1556299
4.7400002 0.9831422 2.1556299
4.7249999 0.9831422 2.1563601
4.71 0.9831422 2.1563601
4.6950002 0.9831422 2.1556299
4.6799998 0.9831422 2.1505198
4.665 0.9831422 2.1476002
4.6500001 0.9831422 2.14979
4.6349998 0.9831422 2.14979
4.6199999 0.9831422 2.14833
4.605 0.9831422 2.14468
4.5899997 0.9831422 2.1468701
4.5749998 0.9831422 2.14906
4.5599999 0.9831422 2.14979
4.5449996 0.9831422 2.15271
4.5299997 0.9831422 2.1505198
4.5149999 0.9831422 2.1512499
4.5 0.9831422 2.1512499
4.4850001 0.9831422 2.1556299
4.4700003 0.9831422 2.1570899
4.4549999 0.9831422 2.1556299
4.4400001 0.9831422 2.1548998
4.4250002 0.9831422 2.1556299
4.4100003 0.9831422 2.1563601
4.395 0.9831422 2.1570899
4.3800001 0.9831422 2.15417
4.3650002 0.9831422 2.1519802
4.3499999 0.9831422 2.14979
4.335 0.9831422 2.1505198
4.3200002 0.9831422 2.15344
4.3049998 0.9831422 2.1519802
4.29 0.9831422 2.1461399
4.2750001 0.9831422 2.1461399
4.2599998 0.9831422 2.14906
4.2449999 0.9831422 2.1476002
4.23 0.9831422 2.14906
4.2149997 0.9831422 2.15344
4.1999998 0.9831422 2.15417
4.1849999 0.9831422 2.15417
4.1700001 0.9831422 2.15344
4.1549997 0.9831422 2.1519802
4.1399999 0.9831422 2.1563601
4.125 0.9831422 2.15417
4.1100001 0.9831422 2.15344
4.0950003 0.9831422 2.15344
4.0799999 0.9831422 2.1519802
4.0650001 0.9831422 2.15271
4.0500002 0.9831422 2.1548998
4.0350003 0.9831422 2.15344
4.02 0.9831422 2.1505198
4.0050001 0.9831422 2.1512499
3.99 0.9831422 2.15344
3.9749999 0.9831422 2.14833
3.96 0.9831422 2.1512499
3.9450002 0.9831422 2.1476002
3.9299998 0.9831422 2.1424901
3.915 0.9831422 2.14395
3.9000001 0.9831422 2.14906
3.8849998 0.9831422 2.1519802
3.8699999 0.9831422 2.14906
3.855 0.9831422 2.14833
3.8400002 0.9831422 2.1476002
3.8249998 0.9831422 2.1505198
3.8099999 0.9831422 2.15344
3.7950001 0.9831422 2.14979
3.78 0.9831422 2.14979
3.7650001 0.9831422 2.1468701
3.7500002 0.9831422 2.1468701
3.7349999 0.9831422 2.14395
3.72 0.9831422 2.1424901
3.7050002 0.9831422 2.1468701
3.6899998 0.9831422 2.1468701
3.675 0.9831422 2.1505198
3.6600001 0.9831422 2.14833
3.645 0.9831422 2.14906
3.6299999 0.9831422 2.1505198
3.615 0.9831422 2.14906
3.5999999 0.9831422 2.14833
3.585 0.9831422 2.1454101
3.5700002 0.9831422 2.1417599
3.5549998 0.9831422 2.1461399
3.54 0.9831422 2.1512499
3.5250001 0.9831422 2.15271
3.5100002 0.9831422 2.14833
3.4949999 0.9831422 2.15344
3.48 0.9831422 2.1505198
3.4650002 0.9831422 2.1461399
3.4499998 0.9831422 2.14395
3.4349999 0.9831422 2.15271
3.4200001 0.9831422 2.14979
3.405 0.9831422 2.1519802
3.3900001 0.9831422 2.15271
3.3750002 0.9831422 2.1461399
3.3599999 0.9831422 2.1454101
3.345 0.9831422 2.1476002
3.3300002 0.9831422 2.14468
3.3149998 0.9831422 2.14395
3.3 0.9831422 2.1461399
3.2850001 0.9831422 2.14395
3.2699997 0.9831422 2.1468701
3.2549999 0.9831422 2.1476002
3.24 0.9831422 2.1476002
3.2249999 0.9831422 2.1519802
3.21 0.9831422 2.1512499
3.1950002 0.9831422 2.1417599
3.0599999 0.9831422 2.1512499
3.0449998 0.9831422 2.14979
3.03 0.9831422 2.14833
3.0150001 0.9831422 2.1403
3 0.9831422 2.1366498
2.9850001 0.9831422 2.1373799
2.97 0.9831422 2.1424901
2.9549999 0.9831422 2.1410298
2.9400001 0.9831422 2.1461399
2.925 0.9831422 2.1468701
2.9100001 0.9831422 2.1454101
2.895 0.9831422 2.1432199
2.8799999 0.9831422 2.1403
2.865 0.9831422 2.1381102
2.8499999 0.9831422 2.13592
2.835 0.9831422 2.1381102
2.8200002 0.9831422 2.1366498
2.8050001 0.9831422 2.1322699
2.79 0.9831422 2.1337299
2.7750001 0.9831422 2.13884
2.76 0.9831422 2.13884
2.7450001 0.9831422 2.1337299
2.73 0.9831422 2.13081
2.7149999 0.9831422 2.1293499
2.7 0.9831422 2.1322699
2.6849999 0.9831422 2.13519
2.6699998 0.9831422 2.1373799
2.655 0.9831422 2.13592
2.6399999 0.9831422 2.1330001
2.625 0.9831422 2.1337299
2.6100001 0.9831422 2.1337299
2.595 0.9831422 2.1315401
2.5800002 0.9831422 2.1278899
2.5650001 0.9831422 2.1286201
2.55 0.9831422 2.1242402
2.5350001 0.9831422 2.1271598
2.52 0.9831422 2.1315401
2.5049999 0.9831422 2.13008
2.49 0.9831422 2.13081
2.4749999 0.9831422 2.1337299
2.46 0.9831422 2.1330001
2.4449999 0.9831422 2.1315401
2.4300001 0.9831422 2.13008
2.4150002 0.9831422 2.1257
2.4000001 0.9831422 2.1235101
2.385 0.9831422 2.1286201
2.3700001 0.9831422 2.1315401
2.355 0.9831422 2.1271598
2.3399999 0.9831422 2.1286201
2.325 0.9831422 2.1278899
2.3099999 0.9831422 2.1235101
2.2949998 0.9831422 2.1257
2.28 0.9831422 2.12497
2.2649999 0.9831422 2.1191301
2.25 0.9831422 2.1242402
2.2350001 0.9831422 2.12497
2.22 0.9831422 2.1235101
2.2050002 0.9831422 2.1242402
2.1900001 0.9831422 2.1242402
2.175 0.9831422 2.1235101
2.1600001 0.9831422 2.1257
2.145 0.9831422 2.12497
2.1299999 0.9831422 2.12059
2.115 0.9831422 2.1147501
2.0999999 0.9831422 2.1198602
2.085 0.9831422 2.12132
2.0699999 0.9831422 2.1176701
2.0550001 0.9831422 2.11183
2.04 0.9831422 2.1176701
2.0250001 0.9831422 2.1183999
2.01 0.9831422 2.1132898
1.995 0.9831422 2.1147501
1.98 0.9831422 2.1140199
1.9649999 0.9831422 2.1132898
1.95 0.9831422 2.1111
1.9349999 0.9831422 2.10672
1.9200001 0.9831422 2.1089098
1.905 0.9831422 2.1096401
1.89 0.9831422 2.1089098
1.8750001 0.9831422 2.1154799
1.86 0.9831422 2.11694
1.8449999 0.9831422 2.11256
1.83 0.9831422 2.1154799
1.8149999 0.9831422 2.1147501
1.8 0.9831422 2.1103702
1.7850001 0.9831422 2.11183
1.77 0.9831422 2.1132898
1.7550001 0.9831422 2.1103702
1.74 0.9831422 2.10818
1.7249999 0.9831422 2.10818
1.71 0.9831422 2.1052601
1.6950001 0.9831422 2.1038001
1.6799999 0.9831422 2.10307
1.6650001 0.9831422 2.1016099
1.65 0.9831422 2.1052601
1.6349999 0.9831422 2.1045299
1.62 0.9831422 2.09869
1.605 0.9831422 2.1038001
6.8249998 1.0767763 2.09431
6.8099999 1.0767763 2.0826302
6.7950001 1.0767763 2.07898
6.7800002 1.0767763 2.07971
6.7649999 1.0767763 2.08336
6.7500005 1.0767763 2.0811698
6.7350001 1.0767763 2.09431
6.7199998 1.0767763 2.09723
6.7050004 1.0767763 2.09723
6.6900001 1.0767763 2.0913901
6.6749997 1.0767763 2.0921202
6.6600003 1.0767763 2.09431
6.645 1.0767763 2.0994198
6.6299996 1.0767763 2.10672
6.6150002 1.0767763 2.10672
6.5999999 1.0767763 2.1096401
6.5849996 1.0767763 2.1103702
6.5700002 1.0767763 2.11183
6.5549998 1.0767763 2.1176701
6.5399995 1.0767763 2.1183999
6.5250001 1.0767763 2.10307
6.5099998 1.0767763 2.10672
6.4949999 1.0767763 2.10672
6.48 1.0767763 2.1103702
6.4650002 1.0767763 2.1140199
6.4499998 1.0767763 2.1147501
6.4349999 1.0767763 2.1147501
6.4200001 1.0767763 2.11694
6.4049997 1.0767763 2.1183999
6.3900003 1.0767763 2.12132
6.375 1.0767763 2.1183999
6.3600006 1.0767763 2.1147501
6.3450003 1.0767763 2.1198602
6.3299999 1.0767763 2.12059
6.3150005 1.0767763 2.1227798
6.3000002 1.0767763 2.12205
6.2849998 1.0767763 2.12132
6.2700005 1.0767763 2.1227798
6.2550001 1.0767763 2.12497
6.2399998 1.0767763 2.1235101
6.2249999 1.0767763 2.1235101
6.21 1.0767763 2.1278899
6.1949997 1.0767763 2.13081
6.1799998 1.0767763 2.1286201
6.165 1.0767763 2.12643
6.1500001 1.0767763 2.1278899
6.1349998 1.0767763 2.1293499
6.1199999 1.0767763 2.13008
6.105 1.0767763 2.1322699
6.0899997 1.0767763 2.1330001
6.0749998 1.0767763 2.1322699
6.0599999 1.0767763 2.1322699
6.0450001 1.0767763 2.13446
6.0300002 1.0767763 2.1330001
6.0150003 1.0767763 2.1322699
6 1.0767763 2.13446
5.9850001 1.0767763 2.13519
5.9700003 1.0767763 2.13592
5.9549999 1.0767763 2.1330001
5.9400001 1.0767763 2.1257
5.9250002 1.0767763 2.09869
5.73 1.0767763 2.1622
5.7149997 1.0767763 2.1600099
5.6999998 1.0767763 2.15782
5.6849999 1.0767763 2.1519802
5.6700001 1.0767763 2.1548998
5.6550002 1.0767763 2.15271
5.6400003 1.0767763 2.1512499
5.625 1.0767763 2.14979
5.6100001 1.0767763 2.1476002
5.5950003 1.0767763 2.1468701
5.5799999 1.0767763 2.15271
5.5650001 1.0767763 2.1512499
5.5500002 1.0767763 2.1461399
5.5349998 1.0767763 2.14833
5.52 1.0767763 2.15271
5.5050001 1.0767763 2.14906
5.4900002 1.0767763 2.1424901
5.4749999 1.0767763 2.1403
5.46 1.0767763 2.1432199
5.4450002 1.0767763 2.1476002
5.4299998 1.0767763 2.1461399
5.415 1.0767763 2.14906
5.4000001 1.0767763 2.1410298
5.3849998 1.0767763 2.1461399
5.3699999 1.0767763 2.14833
5.355 1.0767763 2.14906
5.3399997 1.0767763 2.1505198
5.3249998 1.0767763 2.14906
5.3099999 1.0767763 2.1476002
5.2950001 1.0767763 2.14906
5.2799997 1.0767763 2.1519802
5.2649999 1.0767763 2.1505198
5.25 1.0767763 2.1432199
5.2350001 1.0767763 2.1432199
5.2200003 1.0767763 2.1461399
5.2049999 1.0767763 2.1468701
5.1900001 1.0767763 2.1424901
5.1750002 1.0767763 2.1432199
5.1600003 1.0767763 2.1476002
5.145 1.0767763 2.1461399
5.1300001 1.0767763 2.1410298
5.1150002 1.0767763 2.1461399
5.0999999 1.0767763 2.1468701
5.085 1.0767763 2.1512499
5.0700002 1.0767763 2.1548998
5.0549998 1.0767763 2.1563601
5.04 1.0767763 2.1563601
5.0250001 1.0767763 2.1563601
5.0099998 1.0767763 2.1548998
4.9949999 1.0767763 2.1563601
4.98 1.0767763 2.15344
4.9649997 1.0767763 2.1519802
4.9499998 1.0767763 2.15344
4.9349999 1.0767763 2.1505198
4.9200001 1.0767763 2.15344
4.9049997 1.0767763 2.15417
4.8899999 1.0767763 2.1570899
4.875 1.0767763 2.1556299
4.8600001 1.0767763 2.1468701
4.8450003 1.0767763 2.1476002
4.8300004 1.0767763 2.15344
4.8150001 1.0767763 2.1563601
4.8000002 1.0767763 2.1556299
4.7850003 1.0767763 2.15782
4.77 1.0767763 2.1548998
4.7550001 1.0767763 2.1548998
4.7400002 1.0767763 2.14906
4.7249999 1.0767763 2.15782
4.71 1.0767763 2.14833
4.6950002 1.0767763 2.14833
4.6799998 1.0767763 2.14979
4.665 1.0767763 2.14833
4.6500001 1.0767763 2.1512499
4.6349998 1.0767763 2.1512499
4.6199999 1.0767763 2.14833
4.605 1.0767763 2.14906
4.5899997 1.0767763 2.1519802
4.5749998 1.0767763 2.14906
4.5599999 1.0767763 2.14395
4.5449996 1.0767763 2.1461399
4.5299997 1.0767763 2.1505198
4.5149999 1.0767763 2.15271
4.5 1.0767763 2.1505198
4.4850001 1.0767763 2.15271
4.4700003 1.0767763 2.14833
4.4549999 1.0767763 2.15344
4.4400001 1.0767763 2.1556299
4.4250002 1.0767763 2.15271
4.4100003 1.0767763 2.14833
4.395 1.0767763 2.1476002
4.3800001 1.0767763 2.1454101
4.3650002 1.0767763 2.15271
4.3499999 1.0767763 2.15417
4.335 1.0767763 2.1519802
4.3200002 1.0767763 2.1505198
4.3049998 1.0767763 2.1505198
4.29 1.0767763 2.15271
4.2750001 1.0767763 2.1556299
4.2599998 1.0767763 2.14979
4.2449999 1.0767763 2.1476002
4.23 1.0767763 2.15271
4.2149997 1.0767763 2.1556299
4.1999998 1.0767763 2.15344
4.1849999 1.0767763 2.15271
4.1700001 1.0767763 2.14833
4.1549997 1.0767763 2.15271
4.1399999 1.0767763 2.15344
4.125 1.0767763 2.1512499
4.1100001 1.0767763 2.1505198
4.0950003 1.0767763 2.14833
4.0799999 1.0767763 2.1476002
4.0650001 1.0767763 2.14979
4.0500002 1.0767763 2.1505198
4.0350003 1.0767763 2.14979
4.02 1.0767763 2.14833
4.0050001 1.0767763 2.14979
3.99 1.0767763 2.1476002
3.9749999 1.0767763 2.14906
3.96 1.0767763 2.1476002
3.9450002 1.0767763 2.1417599
3.9299998 1.0767763 2.1424901
3.915 1.0767763 2.14979
3.9000001 1.0767763 2.1505198
3.8849998 1.0767763 2.14979
3.8699999 1.0767763 2.14906
3.855 1.0767763 2.1461399
3.8400002 1.0767763 2.14468
3.8249998 1.0767763 2.14906
3.8099999 1.0767763 2.15271
3.7950001 1.0767763 2.1505198
3.78 1.0767763 2.1468701
3.7650001 1.0767763 2.1424901
3.7500002 1.0767763 2.1476002
3.7349999 1.0767763 2.1505198
3.72 1.0767763 2.1505198
3.7050002 1.0767763 2.1468701
3.6899998 1.0767763 2.1432199
3.675 1.0767763 2.1432199
3.6600001 1.0767763 2.14395
3.645 1.0767763 2.1468701
3.6299999 1.0767763 2.14833
3.615 1.0767763 2.14906
3.5999999 1.0767763 2.1468701
3.585 1.0767763 2.1410298
3.5700002 1.0767763 2.1424901
3.5549998 1.0767763 2.1505198
3.54 1.0767763 2.15344
3.5250001 1.0767763 2.1505198
3.5100002 1.0767763 2.1476002
3.4949999 1.0767763 2.1505198
3.48 1.0767763 2.1461399
3.4650002 1.0767763 2.1505198
3.4499998 1.0767763 2.14979
3.4349999 1.0767763 2.14906
3.4200001 1.0767763 2.14906
3.405 1.0767763 2.1454101
3.3900001 1.0767763 2.1454101
3.3750002 1.0767763 2.1468701
3.3599999 1.0767763 2.14395
3.345 1.0767763 2.1424901
3.3300002 1.0767763 2.14395
3.3149998 1.0767763 2.14395
3.3 1.0767763 2.1461399
3.2850001 1.0767763 2.1505198
3.2699997 1.0767763 2.14979
3.2549999 1.0767763 2.1476002
3.24 1.0767763 2.1417599
3.2249999 1.0767763 2.1454101
3.21 1.0767763 2.1468701
3.1950002 1.0767763 2.1476002
3.1800003 1.0767763 2.1476002
3.165 1.0767763 2.1315401
3.0449998 1.0767763 2.1373799
3.03 1.0767763 2.1424901
3.0150001 1.0767763 2.14468
3 1.0767763 2.14468
2.9850001 1.0767763 2.1417599
2.97 1.0767763 2.13884
2.9549999 1.0767763 2.13519
2.9400001 1.0767763 2.1366498
2.925 1.0767763 2.1373799
2.9100001 1.0767763 2.13884
2.895 1.0767763 2.1403
2.8799999 1.0767763 2.13592
2.865 1.0767763 2.1322699
2.8499999 1.0767763 2.1330001
2.835 1.0767763 2.1337299
2.8200002 1.0767763 2.13884
2.8050001 1.0767763 2.1337299
2.79 1.0767763 2.1366498
2.7750001 1.0767763 2.1424901
2.76 1.0767763 2.1403
2.7450001 1.0767763 2.1366498
2.73 1.0767763 2.13519
2.7149999 1.0767763 2.1373799
2.7 1.0767763 2.13081
2.6849999 1.0767763 2.13008
2.6699998 1.0767763 2.1322699
2.655 1.0767763 2.1315401
2.6399999 1.0767763 2.13008
2.625 1.0767763 2.1278899
2.6100001 1.0767763 2.1271598
2.595 1.0767763 2.1315401
2.5800002 1.0767763 2.1366498
2.5650001 1.0767763 2.1286201
2.55 1.0767763 2.1315401
2.5350001 1.0767763 2.13081
2.52 1.0767763 2.13081
2.5049999 1.0767763 2.1257
2.49 1.0767763 2.12643
2.4749999 1.0767763 2.1286201
2.46 1.0767763 2.12497
2.4449999 1.0767763 2.12643
2.4300001 1.0767763 2.1286201
2.4150002 1.0767763 2.1278899
2.4000001 1.0767763 2.1278899
2.385 1.0767763 2.1257
2.3700001 1.0767763 2.12643
2.355 1.0767763 2.1257
2.3399999 1.0767763 2.1278899
2.325 1.0767763 2.1235101
2.3099999 1.0767763 2.12643
2.2949998 1.0767763 2.1242402
2.28 1.0767763 2.12205
2.2649999 1.0767763 2.12132
2.25 1.0767763 2.12205
2.2350001 1.0767763 2.12132
2.22 1.0767763 2.1198602
2.2050002 1.0767763 2.1183999
2.1900001 1.0767763 2.1191301
2.175 1.0767763 2.12205
2.1600001 1.0767763 2.12059
2.145 1.0767763 2.12132
2.1299999 1.0767763 2.12059
2.115 1.0767763 2.11694
2.0999999 1.0767763 2.11694
2.085 1.0767763 2.1140199
2.0699999 1.0767763 2.1111
2.0550001 1.0767763 2.1140199
2.04 1.0767763 2.1111
2.0250001 1.0767763 2.1111
2.01 1.0767763 2.11183
1.995 1.0767763 2.10818
1.98 1.0767763 2.11256
1.9649999 1.0767763 2.1198602
1.95 1.0767763 2.1183999
1.9349999 1.0767763 2.11256
1.9200001 1.0767763 2.11256
1.905 1.0767763 2.1154799
1.89 1.0767763 2.1096401
1.8750001 1.0767763 2.1096401
1.86 1.0767763 2.1103702
1.8449999 1.0767763 2.1132898
1.83 1.0767763 2.11256
1.8149999 1.0767763 2.1096401
1.8 1.0767763 2.1045299
1.7850001 1.0767763 2.1052601
1.77 1.0767763 2.1059899
1.7550001 1.0767763 2.10672
1.74 1.0767763 2.10672
1.7249999 1.0767763 2.1096401
1.71 1.0767763 2.10818
1.6950001 1.0767763 2.1038001
1.6799999 1.0767763 2.1059899
1.6650001 1.0767763 2.1059899
1.65 1.0767763 2.1045299
1.6349999 1.0767763 2.09796
1.62 1.0767763 2.0965002
1.605 1.0767763 2.1016099
6.8249998 1.1704104 2.0892
6.8099999 1.1704104 2.0877399
6.7950001 1.1704104 2.08336
6.7800002 1.1704104 2.0811698
6.7649999 1.1704104 2.08482
6.7500005 1.1704104 2.08847
6.7350001 1.1704104 2.09796
6.7199998 1.1704104 2.1008801
6.7050004 1.1704104 2.1008801
6.6900001 1.1704104 2.1001499
6.6749997 1.1704104 2.09796
6.6600003 1.1704104 2.1016099
6.645 1.1704104 2.1038001
6.6299996 1.1704104 2.1001499
6.6150002 1.1704104 2.1052601
6.5999999 1.1704104 2.1096401
6.5849996 1.1704104 2.0965002
6.5700002 1.1704104 2.1016099
6.5549998 1.1704104 2.11183
6.5399995 1.1704104 2.10745
6.5250001 1.1704104 2.1052601
6.5099998 1.1704104 2.11183
6.4949999 1.1704104 2.1132898
6.48 1.1704104 2.11256
6.4650002 1.1704104 2.1140199
6.4499998 1.1704104 2.1132898
6.4349999 1.1704104 2.1132898
6.4200001 1.1704104 2.11621
6.4049997 1.1704104 2.1183999
6.3900003 1.1704104 2.1191301
6.375 1.1704104 2.12059
6.3600006 1.1704104 2.1191301
6.3450003 1.1704104 2.1257
6.3299999 1.1704104 2.1191301
6.3150005 1.1704104 2.1154799
6.3000002 1.1704104 2.1257
6.2849998 1.1704104 2.1227798
6.2700005 1.1704104 2.1191301
6.2550001 1.1704104 2.1227798
6.2399998 1.1704104 2.12643
6.2249999 1.1704104 2.13081
6.21 1.1704104 2.1322699
6.1949997 1.1704104 2.1286201
6.1799998 1.1704104 2.1257
6.165 1.1704104 2.12643
6.1500001 1.1704104 2.12497
6.1349998 1.1704104 2.1271598
6.1199999 1.1704104 2.13081
6.105 1.1704104 2.1337299
6.0899997 1.1704104 2.13446
6.0749998 1.1704104 2.13446
6.0599999 1.1704104 2.13519
6.0450001 1.1704104 2.1315401
6.0300002 1.1704104 2.13008
6.0150003 1.1704104 2.13008
6 1.1704104 2.13081
5.9850001 1.1704104 2.13446
5.9700003 1.1704104 2.1373799
5.9549999 1.1704104 2.13446
5.9400001 1.1704104 2.13446
5.9250002 1.1704104 2.1403
5.9099998 1.1704104 2.12643
5.7149997 1.1704104 2.15855
5.6999998 1.1704104 2.1548998
5.6849999 1.1704104 2.1512499
5.6700001 1.1704104 2.15855
5.6550002 1.1704104 2.1505198
5.6400003 1.1704104 2.1476002
5.625 1.1704104 2.14979
5.6100001 1.1704104 2.1512499
5.5950003 1.1704104 2.14468
5.5799999 1.1704104 2.1505198
5.5650001 1.1704104 2.1512499
5.5500002 1.1704104 2.1505198
5.5349998 1.1704104 2.1512499
5.52 1.1704104 2.1519802
5.5050001 1.1704104 2.1505198
5.4900002 1.1704104 2.1468701
5.4749999 1.1704104 2.1512499
5.46 1.1704104 2.1512499
5.4450002 1.1704104 2.1461399
5.4299998 1.1704104 2.1381102
5.415 1.1704104 2.14395
5.4000001 1.1704104 2.14906
5.3849998 1.1704104 2.14979
5.3699999 1.1704104 2.1505198
5.355 1.1704104 2.14906
5.3399997 1.1704104 2.1454101
5.3249998 1.1704104 2.14906
5.3099999 1.1704104 2.1461399
5.2950001 1.1704104 2.14468
5.2799997 1.1704104 2.14833
5.2649999 1.1704104 2.14833
5.25 1.1704104 2.1461399
5.2350001 1.1704104 2.1476002
5.2200003 1.1704104 2.1519802
5.2049999 1.1704104 2.14979
5.1900001 1.1704104 2.14979
5.1750002 1.1704104 2.1454101
5.1600003 1.1704104 2.14833
5.145 1.1704104 2.14833
5.1300001 1.1704104 2.1403
5.1150002 1.1704104 2.1424901
5.0999999 1.1704104 2.14468
5.085 1.1704104 2.14468
5.0700002 1.1704104 2.1468701
5.0549998 1.1704104 2.1519802
5.04 1.1704104 2.1548998
5.0250001 1.1704104 2.1556299
5.0099998 1.1704104 2.1556299
4.9949999 1.1704104 2.1607401
4.98 1.1704104 2.1570899
4.9649997 1.1704104 2.1570899
4.9499998 1.1704104 2.15417
4.9349999 1.1704104 2.15344
4.9200001 1.1704104 2.1570899
4.9049997 1.1704104 2.1592801
4.8899999 1.1704104 2.1556299
4.875 1.1704104 2.15344
4.8600001 1.1704104 2.15344
4.8450003 1.1704104 2.1563601
4.8300004 1.1704104 2.1570899
4.8150001 1.1704104 2.15271
4.8000002 1.1704104 2.1512499
4.7850003 1.1704104 2.1505198
4.77 1.1704104 2.1519802
4.7550001 1.1704104 2.14979
4.7400002 1.1704104 2.15271
4.7249999 1.1704104 2.1505198
4.71 1.1704104 2.15271
4.6950002 1.1704104 2.1556299
4.6799998 1.1704104 2.15417
4.665 1.1704104 2.1505198
4.6500001 1.1704104 2.1468701
4.6349998 1.1704104 2.1476002
4.6199999 1.1704104 2.14979
4.605 1.1704104 2.14979
4.5899997 1.1704104 2.1505198
4.5749998 1.1704104 2.1519802
4.5599999 1.1704104 2.15344
4.5449996 1.1704104 2.1505198
4.5299997 1.1704104 2.14906
4.5149999 1.1704104 2.1505198
4.5 1.1704104 2.14833
4.4850001 1.1704104 2.1461399
4.4700003 1.1704104 2.14906
4.4549999 1.1704104 2.1468701
4.4400001 1.1704104 2.1512499
4.4250002 1.1704104 2.14906
4.4100003 1.1704104 2.1512499
4.395 1.1704104 2.15417
4.3800001 1.1704104 2.1519802
4.3650002 1.1704104 2.1519802
4.3499999 1.1704104 2.1468701
4.335 1.1704104 2.1468701
4.3200002 1.1704104 2.14906
4.3049998 1.1704104 2.14979
4.29 1.1704104 2.1519802
4.2750001 1.1704104 2.15271
4.2599998 1.1704104 2.1505198
4.2449999 1.1704104 2.15271
4.23 1.1704104 2.14906
4.2149997 1.1704104 2.1512499
4.1999998 1.1704104 2.1512499
4.1849999 1.1704104 2.1505198
4.1700001 1.1704104 2.1548998
4.1549997 1.1704104 2.15344
4.1399999 1.1704104 2.15271
4.125 1.1704104 2.15344
4.1100001 1.1704104 2.15344
4.0950003 1.1704104 2.15344
4.0799999 1.1704104 2.15344
4.0650001 1.1704104 2.1548998
4.0500002 1.1704104 2.15271
4.0350003 1.1704104 2.14979
4.02 1.1704104 2.1505198
4.0050001 1.1704104 2.1461399
3.99 1.1704104 2.1454101
3.9749999 1.1704104 2.14979
3.96 1.1704104 2.1468701
3.9450002 1.1704104 2.1424901
3.9299998 1.1704104 2.1476002
3.915 1.1704104 2.14468
3.9000001 1.1704104 2.14395
3.8849998 1.1704104 2.1468701
3.8699999 1.1704104 2.1476002
3.855 1.1704104 2.1512499
3.8400002 1.1704104 2.1519802
3.8249998 1.1704104 2.15271
3.8099999 1.1704104 2.15271
3.7950001 1.1704104 2.1476002
3.78 1.1704104 2.1468701
3.7650001 1.1704104 2.1476002
3.7500002 1.1704104 2.14833
3.7349999 1.1704104 2.1476002
3.72 1.1704104 2.1454101
3.7050002 1.1704104 2.1468701
3.6899998 1.1704104 2.1468701
3.675 1.1704104 2.14395
3.6600001 1.1704104 2.1468701
3.645 1.1704104 2.1476002
3.6299999 1.1704104 2.1424901
3.615 1.1704104 2.1424901
3.5999999 1.1704104 2.14906
3.585 1.1704104 2.1512499
3.5700002 1.1704104 2.1512499
3.5549998 1.1704104 2.1556299
3.54 1.1704104 2.1505198
3.5250001 1.1704104 2.1461399
3.5100002 1.1704104 2.14906
3.4949999 1.1704104 2.1461399
3.48 1.1704104 2.1417599
3.4650002 1.1704104 2.14468
3.4499998 1.1704104 2.1476002
3.4349999 1.1704104 2.1432199
3.4200001 1.1704104 2.14468
3.405 1.1704104 2.14395
3.3900001 1.1704104 2.1461399
3.3750002 1.1704104 2.14833
3.3599999 1.1704104 2.1454101
3.345 1.1704104 2.1432199
3.3300002 1.1704104 2.1424901
3.3149998 1.1704104 2.14395
3.3 1.1704104 2.1424901
3.2850001 1.1704104 2.1454101
3.2699997 1.1704104 2.1432199
3.2549999 1.1704104 2.1424901
3.24 1.1704104 2.1410298
3.2249999 1.1704104 2.1454101
3.21 1.1704104 2.1424901
3.1950002 1.1704104 2.1454101
3.1800003 1.1704104 2.14906
3.165 1.1704104 2.14906
3.1500001 1.1704104 2.14395
3.1350002 1.1704104 2.12497
3.0150001 1.1704104 2.1424901
3 1.1704104 2.1512499
2.9850001 1.1704104 2.14468
2.97 1.1704104 2.14395
2.9549999 1.1704104 2.13957
2.9400001 1.1704104 2.1417599
2.925 1.1704104 2.13884
2.9100001 1.1704104 2.13884
2.895 1.1704104 2.1410298
2.8799999 1.1704104 2.13957
2.865 1.1704104 2.13519
2.8499999 1.1704104 2.1330001
2.835 1.1704104 2.1366498
2.8200002 1.1704104 2.13957
2.8050001 1.1704104 2.1424901
2.79 1.1704104 2.1424901
2.7750001 1.1704104 2.13884
2.76 1.1704104 2.1373799
2.7450001 1.1704104 2.13884
2.73 1.1704104 2.13957
2.7149999 1.1704104 2.13884
2.7 1.1704104 2.1366498
2.6849999 1.1704104 2.1337299
2.6699998 1.1704104 2.13008
2.655 1.1704104 2.1278899
2.6399999 1.1704104 2.1286201
2.625 1.1704104 2.1286201
2.6100001 1.1704104 2.13081
2.595 1.1704104 2.1286201
2.5800002 1.1704104 2.1257
2.5650001 1.1704104 2.13081
2.55 1.1704104 2.1278899
2.5350001 1.1704104 2.1293499
2.52 1.1704104 2.12643
2.5049999 1.1704104 2.12497
2.49 1.1704104 2.1257
2.4749999 1.1704104 2.1257
2.46 1.1704104 2.12497
2.4449999 1.1704104 2.12497
2.4300001 1.1704104 2.1257
2.4150002 1.1704104 2.1257
2.4000001 1.1704104 2.1286201
2.385 1.1704104 2.13008
2.3700001 1.1704104 2.1257
2.355 1.1704104 2.1257
2.3399999 1.1704104 2.1257
2.325 1.1704104 2.1198602
2.3099999 1.1704104 2.1235101
2.2949998 1.1704104 2.1242402
2.28 1.1704104 2.12132
2.2649999 1.1704104 2.12205
2.25 1.1704104 2.1227798
2.2350001 1.1704104 2.1242402
2.22 1.1704104 2.12497
2.2050002 1.1704104 2.1242402
2.1900001 1.1704104 2.1227798
2.175 1.1704104 2.1242402
2.1600001 1.1704104 2.1257
2.145 1.1704104 2.12205
2.1299999 1.1704104 2.1235101
2.115 1.1704104 2.1286201
2.0999999 1.1704104 2.1235101
2.085 1.1704104 2.1154799
2.0699999 1.1704104 2.1147501
2.0550001 1.1704104 2.1132898
2.04 1.1704104 2.11621
2.0250001 1.1704104 2.1132898
2.01 1.1704104 2.10672
1.995 1.1704104 2.11183
1.98 1.1704104 2.1147501
1.9649999 1.1704104 2.11694
1.95 1.1704104 2.11621
1.9349999 1.1704104 2.1140199
1.9200001 1.1704104 2.1147501
1.905 1.1704104 2.11183
1.89 1.1704104 2.1111
1.8750001 1.1704104 2.1154799
1.86 1.1704104 2.10818
1.8449999 1.1704104 2.11256
1.83 1.1704104 2.1154799
1.8149999 1.1704104 2.1147501
1.8 1.1704104 2.11256
1.7850001 1.1704104 2.1089098
1.77 1.1704104 2.1096401
1.7550001 1.1704104 2.11183
1.74 1.1704104 2.1096401
1.7249999 1.1704104 2.1052601
1.71 1.1704104 2.1059899
1.6950001 1.1704104 2.1103702
1.6799999 1.1704104 2.11256
1.6650001 1.1704104 2.10672
1.65 1.1704104 2.1001499
1.6349999 1.1704104 2.0957701
1.62 1.1704104 2.1001499
1.605 1.1704104 2.10307
6.8249998 1.2640444 2.0965002
6.8099999 1.2640444 2.0913901
6.7950001 1.2640444 2.0870101
6.7800002 1.2640444 2.0826302
6.7649999 1.2640444 2.0877399
6.7500005 1.2640444 2.0899301
6.7350001 1.2640444 2.09796
6.7199998 1.2640444 2.0965002
6.7050004 1.2640444 2.0950398
6.6900001 1.2640444 2.1008801
6.6749997 1.2640444 2.1059899
6.6600003 1.2640444 2.1052601
6.645 1.2640444 2.1038001
6.6299996 1.2640444 2.1045299
6.6150002 1.2640444 2.10307
6.5999999 1.2640444 2.1059899
6.5849996 1.2640444 2.1001499
6.5700002 1.2640444 2.10307
6.5549998 1.2640444 2.09796
6.5399995 1.2640444 2.10672
6.5250001 1.2640444 2.11621
6.5099998 1.2640444 2.1191301
6.4949999 1.2640444 2.1176701
6.48 1.2640444 2.11183
6.4650002 1.2640444 2.11256
6.4499998 1.2640444 2.11621
6.4349999 1.2640444 2.1154799
6.4200001 1.2640444 2.1147501
6.4049997 1.2640444 2.11256
6.3900003 1.2640444 2.1111
6.375 1.2640444 2.1154799
6.3600006 1.2640444 2.1183999
6.3450003 1.2640444 2.11256
6.3299999 1.2640444 2.1227798
6.3150005 1.2640444 2.12497
6.3000002 1.2640444 2.12497
6.2849998 1.2640444 2.1271598
6.2700005 1.2640444 2.1227798
6.2550001 1.2640444 2.1227798
6.2399998 1.2640444 2.1257
6.2249999 1.2640444 2.1257
6.21 1.2640444 2.1257
6.1949997 1.2640444 2.12132
6.1799998 1.2640444 2.1235101
6.165 1.2640444 2.1271598
6.1500001 1.2640444 2.13081
6.1349998 1.2640444 2.1286201
6.1199999 1.2640444 2.1293499
6.105 1.2640444 2.1315401
6.0899997 1.2640444 2.13081
6.0749998 1.2640444 2.13008
6.0599999 1.2640444 2.13008
6.0450001 1.2640444 2.1330001
6.0300002 1.2640444 2.13519
6.0150003 1.2640444 2.1373799
6 1.2640444 2.13446
5.9850001 1.2640444 2.12643
5.9700003 1.2640444 2.1293499
5.9549999 1.2640444 2.13592
5.9400001 1.2640444 2.1337299
5.9250002 1.2640444 2.1373799
5.9099998 1.2640444 2.14833
5.895 1.2640444 2.1410298
5.8800001 1.2640444 2.1293499
5.6849999 1.2640444 2.1570899
5.6700001 1.2640444 2.14906
5.6550002 1.2640444 2.14906
5.6400003 1.2640444 2.1461399
5.625 1.2640444 2.1461399
5.6100001 1.2640444 2.1461399
5.5950003 1.2640444 2.14979
5.5799999 1.2640444 2.15344
5.5650001 1.2640444 2.15417
5.5500002 1.2640444 2.1468701
5.5349998 1.2640444 2.1424901
5.52 1.2640444 2.1461399
5.5050001 1.2640444 2.1512499
5.4900002 1.2640444 2.14979
5.4749999 1.2640444 2.1461399
5.46 1.2640444 2.1468701
5.4450002 1.2640444 2.1454101
5.4299998 1.2640444 2.14979
5.415 1.2640444 2.14906
5.4000001 1.2640444 2.1505198
5.3849998 1.2640444 2.1505198
5.3699999 1.2640444 2.1476002
5.355 1.2640444 2.1468701
5.3399997 1.2640444 2.1468701
5.3249998 1.2640444 2.14395
5.3099999 1.2640444 2.1454101
5.2950001 1.2640444 2.1432199
5.2799997 1.2640444 2.14395
5.2649999 1.2640444 2.14906
5.25 1.2640444 2.14833
5.2350001 1.2640444 2.14833
5.2200003 1.2640444 2.1476002
5.2049999 1.2640444 2.14468
5.1900001 1.2640444 2.14468
5.1750002 1.2640444 2.1417599
5.1600003 1.2640444 2.1468701
5.145 1.2640444 2.1366498
5.1300001 1.2640444 2.1476002
5.1150002 1.2640444 2.1468701
5.0999999 1.2640444 2.1432199
5.085 1.2640444 2.1432199
5.0700002 1.2640444 2.1461399
5.0549998 1.2640444 2.1476002
5.04 1.2640444 2.14833
5.0250001 1.2640444 2.14906
5.0099998 1.2640444 2.1512499
4.9949999 1.2640444 2.15344
4.98 1.2640444 2.1548998
4.9649997 1.2640444 2.1512499
4.9499998 1.2640444 2.1476002
4.9349999 1.2640444 2.15417
4.9200001 1.2640444 2.15782
4.9049997 1.2640444 2.15417
4.8899999 1.2640444 2.15271
4.875 1.2640444 2.1512499
4.8600001 1.2640444 2.1519802
4.8450003 1.2640444 2.1548998
4.8300004 1.2640444 2.1556299
4.8150001 1.2640444 2.15344
4.8000002 1.2640444 2.15344
4.7850003 1.2640444 2.1512499
4.77 1.2640444 2.15417
4.7550001 1.2640444 2.1570899
4.7400002 1.2640444 2.15271
4.7249999 1.2640444 2.1505198
4.71 1.2640444 2.15271
4.6950002 1.2640444 2.1548998
4.6799998 1.2640444 2.1548998
4.665 1.2640444 2.1570899
4.6500001 1.2640444 2.15417
4.6349998 1.2640444 2.1476002
4.6199999 1.2640444 2.1468701
4.605 1.2640444 2.1505198
4.5899997 1.2640444 2.15271
4.5749998 1.2640444 2.15417
4.5599999 1.2640444 2.1556299
4.5449996 1.2640444 2.15417
4.5299997 1.2640444 2.15271
4.5149999 1.2640444 2.1556299
4.5 1.2640444 2.15417
4.4850001 1.2640444 2.15855
4.4700003 1.2640444 2.15271
4.4549999 1.2640444 2.1505198
4.4400001 1.2640444 2.1432199
4.4250002 1.2640444 2.15271
4.4100003 1.2640444 2.1548998
4.395 1.2640444 2.1548998
4.3800001 1.2640444 2.1519802
4.3650002 1.2640444 2.14395
4.3499999 1.2640444 2.14833
4.335 1.2640444 2.1512499
4.3200002 1.2640444 2.14979
4.3049998 1.2640444 2.14906
4.29 1.2640444 2.14833
4.2750001 1.2640444 2.14979
4.2599998 1.2640444 2.15417
4.2449999 1.2640444 2.14979
4.23 1.2640444 2.14979
4.2149997 1.2640444 2.15271
4.1999998 1.2640444 2.14979
4.1849999 1.2640444 2.15344
4.1700001 1.2640444 2.1556299
4.1549997 1.2640444 2.15417
4.1399999 1.2640444 2.1548998
4.125 1.2640444 2.1563601
4.1100001 1.2640444 2.1505198
4.0950003 1.2640444 2.1468701
4.0799999 1.2640444 2.14906
4.0650001 1.2640444 2.14979
4.0500002 1.2640444 2.1519802
4.0350003 1.2640444 2.1563601
4.02 1.2640444 2.15417
4.0050001 1.2640444 2.15271
3.99 1.2640444 2.1556299
3.9749999 1.2640444 2.1505198
3.96 1.2640444 2.1512499
3.9450002 1.2640444 2.1476002
3.9299998 1.2640444 2.14833
3.915 1.2640444 2.1512499
3.9000001 1.2640444 2.1461399
3.8849998 1.2640444 2.1468701
3.8699999 1.2640444 2.1468701
3.855 1.2640444 2.1505198
3.8400002 1.2640444 2.15344
3.8249998 1.2640444 2.14833
3.8099999 1.2640444 2.1454101
3.7950001 1.2640444 2.1505198
3.78 1.2640444 2.1512499
3.7650001 1.2640444 2.1468701
3.7500002 1.2640444 2.1505198
3.7349999 1.2640444 2.1476002
3.72 1.2640444 2.1468701
3.7050002 1.2640444 2.1476002
3.6899998 1.2640444 2.14468
3.675 1.2640444 2.14468
3.6600001 1.2640444 2.14468
3.645 1.2640444 2.1468701
3.6299999 1.2640444 2.1476002
3.615 1.2640444 2.1476002
3.5999999 1.2640444 2.14906
3.585 1.2640444 2.14906
3.5700002 1.2640444 2.14906
3.5549998 1.2640444 2.14979
3.54 1.2640444 2.1454101
3.5250001 1.2640444 2.1432199
3.5100002 1.2640444 2.14906
3.4949999 1.2640444 2.14468
3.48 1.2640444 2.1476002
3.4650002 1.2640444 2.1476002
3.4499998 1.2640444 2.14833
3.4349999 1.2640444 2.1454101
3.4200001 1.2640444 2.14468
3.405 1.2640444 2.1468701
3.3900001 1.2640444 2.14395
3.3750002 1.2640444 2.14395
3.3599999 1.2640444 2.1468701
3.345 1.2640444 2.1454101
3.3300002 1.2640444 2.14395
3.3149998 1.2640444 2.1468701
3.3 1.2640444 2.1476002
3.2850001 1.2640444 2.14395
3.2699997 1.2640444 2.14833
3.2549999 1.2640444 2.1432199
3.24 1.2640444 2.1461399
3.2249999 1.2640444 2.1461399
3.21 1.2640444 2.15271
3.1950002 1.2640444 2.14833
3.1800003 1.2640444 2.14906
3.165 1.2640444 2.14833
3.1500001 1.2640444 2.1476002
3.1350002 1.2640444 2.1476002
3.1199999 1.2640444 2.1432199
3.105 1.2640444 2.1059899
2.97 1.2640444 2.1476002
2.9549999 1.2640444 2.1403
2.9400001 1.2640444 2.1417599
2.925 1.2640444 2.1381102
2.9100001 1.2640444 2.13592
2.895 1.2640444 2.1381102
2.8799999 1.2640444 2.13519
2.865 1.2640444 2.1315401
2.8499999 1.2640444 2.13446
2.835 1.2640444 2.1381102
