# .PCD v0.7 - Point Cloud Data file format
VERSION 0.7
FIELDS x y z
SIZE 4 4 4
TYPE F F F
COUNT 1 1 1
WIDTH 1364
HEIGHT 1
VIEWPOINT 0 0 0 1 0 0 0
POINTS 1364
DATA ascii
-0.024975 0.0056178658 0.0167091
-0.025125001 0.0056178658 0.0168478
-0.025274999 0.0056178658 0.016738299
-0.025425 0.0056178658 0.016782099
-0.025575001 0.0056178658 0.016840501
-0.025725 0.0056178658 0.016876999
-0.025875 0.0056178658 0.016840501
-0.026024999 0.0056178658 0.016833199
-0.026175 0.0056178658 0.0168989
-0.026325 0.0056178658 0.016928099
-0.026474999 0.0056178658 0.016876999
-0.026625 0.0056178658 0.016833199
-0.026775001 0.0056178658 0.0169062
-0.026924999 0.0056178658 0.0169135
-0.027075 0.0056178658 0.016935401
-0.027225001 0.0056178658 0.0168551
-0.027375 0.0056178658 0.0168624
-0.027525 0.0056178658 0.016979201
-0.027674999 0.0056178658 0.0169427
-0.027825 0.0056178658 0.0169062
-0.027975 0.0056178658 0.016979201
-0.028124999 0.0056178658 -inf
-0.028275 0.0056178658 -inf
-0.028425001 0.0056178658 -inf
-0.028574999 0.0056178658 -inf
-0.028725 0.0056178658 -inf
-0.028875001 0.0056178658 0.0169062
-0.029025 0.0056178658 0.016935401
-0.029175 0.0056178658 0.017023001
-0.029324999 0.0056178658 0.017023001
-0.029475 0.0056178658 0.017023001
-0.029625 0.0056178658 0.0169573
-0.029774999 0.0056178658 0.0169573
-0.029925 0.0056178658 0.0169865
-0.030075001 0.0056178658 0.01695
-0.030224999 0.0056178658 0.0169427
-0.030375 0.0056178658 0.0169427
-0.030525001 0.0056178658 0.016935401
-0.030675 0.0056178658 0.017023001
-0.030825 0.0056178658 0.0169865
-0.030974999 0.0056178658 0.016928099
-0.031125 0.0056178658 0.017015699
-0.031275 0.0056178658 0.0170376
-0.031424999 0.0056178658 0.01695
-0.031575002 0.0056178658 0.016979201
-0.031725001 0.0056178658 0.017074101
-0.031874999 0.0056178658 0.017059499
-0.032024998 0.0056178658 0.017066799
-0.032175001 0.0056178658 0.017096
-0.032325 0.0056178658 0.017117901
-0.032474998 0.0056178658 0.017096
-0.032625001 0.0056178658 0.017059499
-0.032775 0.0056178658 0.017059499
-0.032924999 0.0056178658 0.017074101
-0.033075001 0.0056178658 0.0170522
-0.033225 0.0056178658 0.017096
-0.033374999 0.0056178658 0.0170814
-0.033525001 0.0056178658 0.017096
-0.033675 0.0056178658 0.0170376
-0.033824999 0.0056178658 0.0170814
-0.033975001 0.0056178658 0.0171398
-0.034125 0.0056178658 0.017117901
-0.034274999 0.0056178658 0.017117901
-0.034425002 0.0056178658 0.017161701
-0.034575 0.0056178658 0.0171836
-0.034724999 0.0056178658 0.017249299
-0.034875002 0.0056178658 0.017300401
-0.035025001 0.0056178658 0.017169001
-0.035174999 0.0056178658 0.0171252
-0.035324998 0.0056178658 0.017249299
-0.035475001 0.0056178658 0.0172858
-0.035625 0.0056178658 0.0173296
-0.035774998 0.0056178658 0.0172639
-0.035925001 0.0056178658 0.017249299
-0.036075 0.0056178658 0.017256601
-0.036224999 0.0056178658 0.0172858
-0.036375001 0.0056178658 0.0173807
-0.036525 0.0056178658 0.0174026
-0.036674999 0.0056178658 0.017336899
-0.036825001 0.0056178658 0.017300401
-0.036975 0.0056178658 0.0172785
-0.037124999 0.0056178658 0.017293099
-0.037275001 0.0056178658 0.017351501
-0.037425 0.0056178658 0.017344199
-0.037574999 0.0056178658 0.017351501
-0.037725002 0.0056178658 0.017344199
-0.037875 0.0056178658 0.0173223
-0.038024999 0.0056178658 0.017351501
-0.038175002 0.0056178658 0.0173661
-0.038325001 0.0056178658 0.017431799
-0.038474999 0.0056178658 0.0174245
-0.038624998 0.0056178658 0.017387999
-0.038775001 0.0056178658 0.0174245
-0.038925 0.0056178658 0.017446401
-0.039074998 0.0056178658 0.0174245
-0.039225001 0.0056178658 0.017461
-0.039375 0.0056178658 0.0174026
-0.039524999 0.0056178658 0.017256601
-0.039675001 0.0056178658 0.017475599
-0.039825 0.0056178658 0.017490201
-0.039974999 0.0056178658 0.017461
-0.040125001 0.0056178658 0.0174975
-0.040275 0.0056178658 0.0175121
-0.040424999 0.0056178658 0.017534001
-0.040575001 0.0056178658 0.017585101
-0.040725 0.0056178658 0.017621599
-0.040874999 0.0056178658 0.017621599
-0.041025002 0.0056178658 0.017621599
-0.041175 0.0056178658 0.0176362
-0.041324999 0.0056178658 0.017585101
-0.041475002 0.0056178658 0.017534001
-0.041625001 0.0056178658 0.017585101
-0.041774999 0.0056178658 0.017665399
-0.041924998 0.0056178658 0.0176362
-0.042075001 0.0056178658 0.017628901
-0.042225 0.0056178658 0.017621599
-0.042374998 0.0056178658 0.0176362
-0.042525001 0.0056178658 0.0177749
-0.042675 0.0056178658 0.017672701
-0.042824998 0.0056178658 0.017614299
-0.042975001 0.0056178658 0.017709199
-0.043125 0.0056178658 0.017760299
-0.043274999 0.0056178658 0.017752999
-0.043425001 0.0056178658 0.017760299
-0.043575 0.0056178658 0.017760299
-0.043724999 0.0056178658 0.017811401
-0.043875001 0.0056178658 0.017767601
-0.044025 0.0056178658 0.0176946
-0.044174999 0.0056178658 0.017709199
-0.044325002 0.0056178658 0.017709199
-0.044475 0.0056178658 0.017847899
-0.044624999 0.0056178658 0.017804099
-0.044775002 0.0056178658 0.0177822
-0.044925001 0.0056178658 0.017804099
-0.045074999 0.0056178658 0.017818701
-0.045224998 0.0056178658 0.0178333
-0.045375001 0.0056178658 0.0179282
-0.045524999 0.0056178658 0.017957401
-0.045674998 0.0056178658 0.0179136
-0.045825001 0.0056178658 0.017891699
-0.045975 0.0056178658 0.017891699
-0.046124998 0.0056178658 0.0178771
-0.046275001 0.0056178658 0.017862501
-0.046425 0.0056178658 0.0179136
-0.046574999 0.0056178658 0.0179647
-0.046725001 0.0056178658 0.0179793
-0.046875 0.0056178658 0.017986599
-0.047024999 0.0056178658 0.0180231
-0.047175001 0.0056178658 0.018030399
-0.047325 0.0056178658 0.018030399
-0.047474999 0.0056178658 0.0180596
-0.047625002 0.0056178658 0.0180669
-0.047775 0.0056178658 0.0180523
-0.047924999 0.0056178658 0.018045001
-0.048075002 0.0056178658 0.0181034
-0.048225001 0.0056178658 0.018139901
-0.048374999 0.0056178658 0.018088801
-0.048525002 0.0056178658 0.018030399
-0.048675001 0.0056178658 0.0180523
-0.048824999 0.0056178658 0.018183701
-0.048974998 0.0056178658 0.0182056
-0.049125001 0.0056178658 0.0182129
-0.049275 0.0056178658 0.018125299
-0.049424998 0.0056178658 0.0182494
-0.049575001 0.0056178658 0.018169099
-0.049725 0.0056178658 0.018169099
-0.049874999 0.0056178658 0.018183701
-0.050025001 0.0056178658 0.018278601
-0.050175 0.0056178658 0.0182494
-0.050324999 0.0056178658 0.0182494
-0.050475001 0.0056178658 0.018263999
-0.050625 0.0056178658 0.018234801
-0.050774999 0.0056178658 0.0182421
-0.050925002 0.0056178658 0.0182859
-0.051075 0.0056178658 0.0182859
-0.051224999 0.0056178658 0.018315099
-0.051375002 0.0056178658 0.0183808
-0.051525 0.0056178658 0.018366201
-0.051674999 0.0056178658 0.0183954
-0.051825002 0.0056178658 0.0183443
-0.051975001 0.0056178658 0.0183881
-0.052124999 0.0056178658 0.0184246
-0.052274998 0.0056178658 0.0184684
-0.052425001 0.0056178658 0.0184319
-0.052575 0.0056178658 0.018417301
-0.052724998 0.0056178658 0.018504901
-0.052875001 0.0056178658 0.018497599
-0.053025 0.0056178658 0.0184757
-0.053174999 0.0056178658 0.0185268
-0.053325001 0.0056178658 0.0185706
-0.053475 0.0056178658 0.018585199
-0.053624999 0.0056178658 0.0185633
-0.053775001 0.0056178658 0.018541399
-0.053925 0.0056178658 0.0185779
-0.054074999 0.0056178658 0.018548699
-0.054225001 0.0056178658 0.018585199
-0.054375 0.0056178658 0.0186144
-0.054524999 0.0056178658 0.018585199
-0.054675002 0.0056178658 0.0186728
-0.054825 0.0056178658 0.018687399
-0.054974999 0.0056178658 0.018687399
-0.055125002 0.0056178658 0.0187166
-0.055275001 0.0056178658 0.0186728
-0.055424999 0.0056178658 0.018774999
-0.055574998 0.0056178658 0.018774999
-0.055725001 0.0056178658 0.018738501
-0.055875 0.0056178658 0.0187093
-0.056024998 0.0056178658 0.0187458
-0.056175001 0.0056178658 0.0187969
-0.056325 0.0056178658 0.0188042
-0.056474999 0.0056178658 0.018848
-0.056625001 0.0056178658 0.0188407
-0.056775 0.0056178658 0.018833401
-0.056924999 0.0056178658 0.0188845
-0.057075001 0.0056178658 0.018869899
-0.057225 0.0056178658 0.0188991
-0.057374999 0.0056178658 0.018913699
-0.057525001 0.0056178658 0.0188626
-0.057675 0.0056178658 0.0189064
-0.057824999 0.0056178658 0.018913699
-0.057975002 0.0056178658 0.0188918
-0.058125 0.0056178658 0.018964799
-0.058274999 0.0056178658 0.0190013
-0.058425002 0.0056178658 0.018972101
-0.058575001 0.0056178658 0.019008599
-0.058724999 0.0056178658 0.019059701
-0.058874998 0.0056178658 0.0190889
-0.059025001 0.0056178658 -inf
-0.059175 0.0056178658 -inf
-0.059324998 0.0056178658 -inf
-0.059475001 0.0056178658 -inf
-0.059625 0.0056178658 -inf
-0.059774999 0.0056178658 -inf
0.059774999 0.0065542068 -inf
0.059625 0.0065542068 -inf
0.059475001 0.0065542068 -inf
0.059324998 0.0065542068 -inf
0.059175 0.0065542068 -inf
0.059025001 0.0065542068 -inf
0.058874998 0.0065542068 -inf
0.058724999 0.0065542068 -inf
0.058575001 0.0065542068 -inf
0.058425002 0.0065542068 -inf
0.058274999 0.0065542068 -inf
0.058125 0.0065542068 -inf
0.057975002 0.0065542068 -inf
0.057824999 0.0065542068 0.019804301
0.057675 0.0065542068 0.0197313
0.057525001 0.0065542068 0.019665601
0.057374999 0.0065542068 0.0196802
0.057225 0.0065542068 0.019702099
0.057075001 0.0065542068 0.019702099
0.056924999 0.0065542068 0.019621801
0.056775 0.0065542068 0.019563399
0.056625001 0.0065542068 0.0195415
0.056474999 0.0065542068 0.0195926
0.056325 0.0065542068 0.019621801
0.056175001 0.0065542068 0.0196364
0.056024998 0.0065542068 0.0195561
0.055875 0.0065542068 0.0194977
0.055725001 0.0065542068 0.019475801
0.055574998 0.0065542068 0.019468499
0.055424999 0.0065542068 0.019468499
0.055275001 0.0065542068 0.0194904
0.055125002 0.0065542068 0.019483101
0.054974999 0.0065542068 0.0194977
0.054825 0.0065542068 0.019439301
0.054675002 0.0065542068 0.0194174
0.054524999 0.0065542068 0.019344401
0.054375 0.0065542068 0.019380899
0.054225001 0.0065542068 0.019234899
0.054074999 0.0065542068 0.0192787
0.053925 0.0065542068 0.0192787
0.053775001 0.0065542068 0.019337101
0.053624999 0.0065542068 0.0193517
0.053475 0.0065542068 0.019359
0.053325001 0.0065542068 0.019293301
0.053174999 0.0065542068 0.019249501
0.053025 0.0065542068 0.0192641
0.052875001 0.0065542068 0.0192714
0.052724998 0.0065542068 0.0192714
0.052575 0.0065542068 0.019329799
0.052425001 0.0065542068 0.019300601
0.052274998 0.0065542068 0.0192787
0.052124999 0.0065542068 0.0192203
0.051975001 0.0065542068 0.019205701
0.051825002 0.0065542068 0.0192787
0.051674999 0.0065542068 0.019213
0.051525 0.0065542068 0.0191838
0.051375002 0.0065542068 0.019110801
0.051224999 0.0065542068 0.019103499
0.051075 0.0065542068 0.0191181
0.050925002 0.0065542068 0.0191327
0.050774999 0.0065542068 0.019103499
0.050625 0.0065542068 0.0190743
0.050475001 0.0065542068 0.019110801
0.050324999 0.0065542068 0.019147299
0.050175 0.0065542068 0.0190816
0.050025001 0.0065542068 0.0190232
0.049874999 0.0065542068 0.019015901
0.049725 0.0065542068 0.0190013
0.049575001 0.0065542068 0.0190451
0.049424998 0.0065542068 0.018994
0.049275 0.0065542068 0.0190305
0.049125001 0.0065542068 0.018972101
0.048974998 0.0065542068 0.018833401
0.048824999 0.0065542068 -inf
0.048675001 0.0065542068 -inf
0.048525002 0.0065542068 -inf
0.048374999 0.0065542068 -inf
0.048225001 0.0065542068 -inf
0.048075002 0.0065542068 -inf
0.047924999 0.0065542068 0.019052399
0.047775 0.0065542068 0.018957499
0.047625002 0.0065542068 0.018848
0.047474999 0.0065542068 0.018826099
0.047325 0.0065542068 0.0188626
0.047175001 0.0065542068 0.018921001
0.047024999 0.0065542068 0.018826099
0.046875 0.0065542068 0.018789601
0.046725001 0.0065542068 0.0188042
0.046574999 0.0065542068 0.0187093
0.046425 0.0065542068 0.0186728
0.046275001 0.0065542068 0.018731199
0.046124998 0.0065542068 0.018774999
0.045975 0.0065542068 0.018694701
0.045825001 0.0065542068 0.0187093
0.045674998 0.0065542068 0.0186728
0.045524999 0.0065542068 0.0186217
0.045375001 0.0065542068 0.0186071
0.045224998 0.0065542068 0.018592499
0.045074999 0.0065542068 0.0186144
0.044925001 0.0065542068 0.018643601
0.044775002 0.0065542068 0.018636299
0.044624999 0.0065542068 0.0186217
0.044475 0.0065542068 0.0184903
0.044325002 0.0065542068 0.018504901
0.044174999 0.0065542068 0.0185633
0.044025 0.0065542068 0.0184757
0.043875001 0.0065542068 0.0184903
0.043724999 0.0065542068 0.018483
0.043575 0.0065542068 0.018512201
0.043425001 0.0065542068 0.0185268
0.043274999 0.0065542068 0.0185268
0.043125 0.0065542068 0.018497599
0.042975001 0.0065542068 0.0184684
0.042824998 0.0065542068 0.018504901
0.042675 0.0065542068 0.018556001
0.042525001 0.0065542068 0.018512201
0.042374998 0.0065542068 0.018366201
0.042225 0.0065542068 0.018315099
0.042075001 0.0065542068 0.018373501
0.041924998 0.0065542068 0.018461101
0.041774999 0.0065542068 0.0183954
0.041625001 0.0065542068 0.0183443
0.041475002 0.0065542068 0.0183005
0.041324999 0.0065542068 0.018337
0.041175 0.0065542068 0.0183005
0.041025002 0.0065542068 0.0183443
0.040874999 0.0065542068 0.0183297
0.040725 0.0065542068 0.018315099
0.040575001 0.0065542068 0.018337
0.040424999 0.0065542068 0.0183297
0.040275 0.0065542068 0.0182932
0.040125001 0.0065542068 0.0182859
0.039974999 0.0065542068 0.018315099
0.039825 0.0065542068 0.0183005
0.039675001 0.0065542068 0.0182932
0.039524999 0.0065542068 0.0182494
0.039375 0.0065542068 0.018227501
0.039225001 0.0065542068 0.0181107
0.039074998 0.0065542068 0.018234801
0.038925 0.0065542068 0.018227501
0.038775001 0.0065542068 0.018191
0.038624998 0.0065542068 0.018191
0.038474999 0.0065542068 0.018183701
0.038325001 0.0065542068 0.018132599
0.038175002 0.0065542068 0.0181545
0.038024999 0.0065542068 0.0181983
0.037875 0.0065542068 0.018132599
0.037725002 0.0065542068 0.0180596
0.037574999 0.0065542068 0.0180596
0.037425 0.0065542068 0.0180231
0.037275001 0.0065542068 0.0180523
0.037124999 0.0065542068 0.018139901
0.036975 0.0065542068 0.018125299
0.036825001 0.0065542068 0.0180669
0.036674999 0.0065542068 0.017986599
0.036525 0.0065542068 0.018037699
0.036375001 0.0065542068 0.018037699
0.036224999 0.0065542068 0.018045001
0.036075 0.0065542068 0.0180085
0.035925001 0.0065542068 0.0179355
0.035774998 0.0065542068 0.0179355
0.035625 0.0065542068 0.017972
0.035475001 0.0065542068 0.017957401
0.035324998 0.0065542068 0.017950101
0.035174999 0.0065542068 0.017972
0.035025001 0.0065542068 0.0180523
0.034875002 0.0065542068 0.0180596
0.034724999 0.0065542068 0.017942799
0.034575 0.0065542068 0.0179355
0.034425002 0.0065542068 0.0179355
0.034274999 0.0065542068 0.017942799
0.034125 0.0065542068 0.0178844
0.033975001 0.0065542068 0.017847899
0.033824999 0.0065542068 0.0178333
0.033675 0.0065542068 0.017826
0.033525001 0.0065542068 0.017847899
0.033374999 0.0065542068 0.017862501
0.033225 0.0065542068 0.017906301
0.033075001 0.0065542068 0.0178333
0.032924999 0.0065542068 0.017906301
0.032775 0.0065542068 0.0177822
0.032625001 0.0065542068 0.017804099
0.032474998 0.0065542068 0.017767601
0.032325 0.0065542068 0.017760299
0.032175001 0.0065542068 0.017818701
0.032024998 0.0065542068 0.0177749
0.031874999 0.0065542068 0.017680001
0.031725001 0.0065542068 0.0177019
0.031575002 0.0065542068 0.017752999
0.031424999 0.0065542068 0.017767601
0.031275 0.0065542068 0.017811401
0.031125 0.0065542068 0.0177457
0.030974999 0.0065542068 0.017716501
0.030825 0.0065542068 0.017665399
0.030675 0.0065542068 0.0175924
0.030525001 0.0065542068 0.0176508
0.030375 0.0065542068 0.017680001
0.030224999 0.0065542068 0.0176873
0.030075001 0.0065542068 0.017680001
0.029925 0.0065542068 0.017680001
0.029774999 0.0065542068 0.017665399
0.029625 0.0065542068 0.017672701
0.029475 0.0065542068 0.0176508
0.029324999 0.0065542068 0.017614299
0.029175 0.0065542068 0.017570499
0.029025 0.0065542068 0.0175559
0.028875001 0.0065542068 0.017541301
0.028725 0.0065542068 0.017446401
0.028574999 0.0065542068 0.017621599
0.028425001 0.0065542068 0.017621599
0.028275 0.0065542068 0.0174975
0.028124999 0.0065542068 0.0175194
0.027975 0.0065542068 0.0175121
0.027825 0.0065542068 0.0175121
0.027674999 0.0065542068 0.017526699
0.027525 0.0065542068 0.0175486
0.027375 0.0065542068 0.0175121
0.027225001 0.0065542068 0.017439101
0.027075 0.0065542068 0.017490201
0.026924999 0.0065542068 0.0175486
0.026775001 0.0065542068 0.017482899
0.026625 0.0065542068 0.0175048
0.026474999 0.0065542068 0.017431799
0.026325 0.0065542068 0.0174026
0.026175 0.0065542068 0.017461
0.026024999 0.0065542068 0.0174537
0.025875 0.0065542068 0.017475599
0.025725 0.0065542068 0.0174245
0.025575001 0.0065542068 0.017395301
0.025425 0.0065542068 0.017395301
0.025274999 0.0065542068 0.017395301
0.025125001 0.0065542068 0.0174245
0.024975 0.0065542068 0.0174245
0.024824999 0.0065542068 0.0173661
0.024675 0.0065542068 0.017344199
0.024525 0.0065542068 0.0173661
0.024374999 0.0065542068 0.017344199
0.024225 0.0065542068 0.017242
0.024075 0.0065542068 0.017344199
0.023925001 0.0065542068 0.0173588
0.023775 0.0065542068 0.017293099
0.023624999 0.0065542068 0.017315
0.023475001 0.0065542068 0.017307701
0.023325 0.0065542068 0.017307701
0.023174999 0.0065542068 0.017315
0.023025 0.0065542068 0.017300401
0.022875 0.0065542068 0.017300401
0.022724999 0.0065542068 0.017256601
0.022575 0.0065542068 0.0172639
0.022425 0.0065542068 0.0173807
0.022275001 0.0065542068 0.017300401
0.022125 0.0065542068 0.0172639
0.021974999 0.0065542068 0.0172201
0.021825001 0.0065542068 0.0172639
0.021675 0.0065542068 0.0171398
0.021524999 0.0065542068 0.017161701
0.021375 0.0065542068 0.0171836
0.021225 0.0065542068 0.0171763
0.021074999 0.0065542068 0.017198199
0.020925 0.0065542068 0.0172712
0.020775 0.0065542068 0.017336899
0.020625001 0.0065542068 0.017307701
0.020475 0.0065542068 0.0171909
0.020324999 0.0065542068 0.0172347
0.020175001 0.0065542068 0.017169001
0.020025 0.0065542068 0.017169001
0.019874999 0.0065542068 0.017161701
0.019725 0.0065542068 0.017154399
0.019575 0.0065542068 0.017154399
0.019424999 0.0065542068 0.0171471
0.019275 0.0065542068 0.017161701
0.019125 0.0065542068 0.0171471
0.018975001 0.0065542068 0.017117901
0.018825 0.0065542068 0.0171398
0.018674999 0.0065542068 0.0171252
0.018525001 0.0065542068 0.0171398
0.018375 0.0065542068 0.0170887
0.018224999 0.0065542068 0.017110599
0.018075 0.0065542068 0.0170522
0.017925 0.0065542068 0.017096
0.017774999 0.0065542068 0.0170376
0.017625 0.0065542068 0.017059499
0.017475 0.0065542068 0.017110599
0.017325001 0.0065542068 0.017110599
0.017175 0.0065542068 0.017066799
0.017024999 0.0065542068 0.0170522
0.016875001 0.0065542068 0.017066799
0.016725 0.0065542068 0.017059499
0.016574999 0.0065542068 0.0171252
0.016425001 0.0065542068 0.017117901
0.016275 0.0065542068 0.017015699
0.016124999 0.0065542068 0.0170522
0.015975 0.0065542068 0.0169938
0.015825 0.0065542068 0.016979201
0.015675001 0.0065542068 0.01695
0.015525 0.0065542068 0.016928099
0.015375 0.0065542068 0.0168989
0.015225 0.0065542068 0.016891601
0.015075 0.0065542068 0.0169427
0.014925 0.0065542068 0.016979201
0.014775 0.0065542068 0.016964599
0.014625 0.0065542068 0.017030301
0.014475 0.0065542068 0.0170084
0.014325 0.0065542068 0.016891601
0.014175 0.0065542068 0.0168989
0.014025 0.0065542068 0.0169573
0.013875 0.0065542068 0.016971899
0.013725 0.0065542068 0.0169573
0.013575 0.0065542068 0.0169062
0.013425 0.0065542068 0.016891601
0.013275 0.0065542068 0.0169427
0.013125 0.0065542068 0.016971899
0.012975 0.0065542068 0.016928099
0.012825 0.0065542068 0.016920799
0.012675 0.0065542068 0.016884301
0.012525 0.0065542068 0.016876999
0.012375 0.0065542068 0.016920799
0.012225 0.0065542068 0.016840501
0.012075 0.0065542068 0.016891601
0.011925 0.0065542068 0.016840501
0.011775 0.0065542068 0.0169135
0.011625 0.0065542068 0.016840501
0.011475 0.0065542068 0.016825899
0.011325 0.0065542068 0.0168551
0.011175 0.0065542068 0.016825899
0.011025 0.0065542068 0.0168113
0.010875 0.0065542068 0.016840501
0.010725 0.0065542068 0.0168551
0.010575 0.0065542068 0.0165339
0.010425 0.0065542068 0.0152491
0.010275 0.0065542068 0.0151396
0.010125 0.0065542068 0.0151469
0.0099750003 0.0065542068 0.0158477
0.0098249996 0.0065542068 0.016548499
0.0096749999 0.0065542068 0.016731
0.0095250001 0.0065542068 0.016796701
0.0093750004 0.0065542068 0.016825899
0.0092249997 0.0065542068 0.016804
0.009075 0.0065542068 0.016796701
0.0089250002 0.0065542068 0.016833199
0.0087750005 0.0065542068 0.016833199
0.0086249998 0.0065542068 0.016745601
0.008475 0.0065542068 0.0167164
0.0083250003 0.0065542068 0.016606901
0.0081749996 0.0065542068 0.0167164
0.0080249999 0.0065542068 0.016650699
0.0078750001 0.0065542068 0.0167602
0.0077249999 0.0065542068 0.016804
0.0075750002 0.0065542068 0.0167164
0.007425 0.0065542068 0.0166653
0.0072750002 0.0065542068 0.0166799
0.007125 0.0065542068 0.0166361
0.0069749998 0.0065542068 0.0166288
0.006825 0.0065542068 0.0167602
0.0066749998 0.0065542068 0.016687199
0.0065250001 0.0065542068 0.0166215
0.0063749999 0.0065542068 0.0166288
0.0062250001 0.0065542068 0.0166361
0.0060749999 0.0065542068 0.016650699
0.0059250002 0.0065542068 0.0165923
0.005775 0.0065542068 0.016650699
0.0056250002 0.0065542068 0.016694499
0.005475 0.0065542068 0.016658001
0.0053249998 0.0065542068 0.0166653
0.0051750001 0.0065542068 0.0166726
0.0050249998 0.0065542068 0.016563101
0.0048750001 0.0065542068 0.0165266
0.0047249999 0.0065542068 0.016599599
0.0045750001 0.0065542068 0.016687199
0.0044249999 0.0065542068 0.016694499
0.0042750002 0.0065542068 0.0166215
0.004125 0.0065542068 0.016599599
0.0039750002 0.0065542068 0.016687199
0.003825 0.0065542068 0.016738299
0.003675 0.0065542068 0.016658001
0.0035250001 0.0065542068 0.0165777
0.0033750001 0.0065542068 0.0165777
0.0032250001 0.0065542068 0.0166215
0.0030749999 0.0065542068 0.016599599
0.0029249999 0.0065542068 0.016650699
0.0027749999 0.0065542068 0.016606901
0.002625 0.0065542068 0.0165339
0.002475 0.0065542068 0.016555799
0.002325 0.0065542068 0.016643399
0.002175 0.0065542068 0.016563101
0.0020250001 0.0065542068 0.016563101
0.001875 0.0065542068 0.0166288
0.001725 0.0065542068 0.0166288
0.001575 0.0065542068 0.0166288
0.001425 0.0065542068 0.016694499
0.001275 0.0065542068 0.0167237
0.001125 0.0065542068 0.016694499
0.00097499997 0.0065542068 0.0166726
0.000825 0.0065542068 0.016606901
0.00067500002 0.0065542068 0.016643399
0.00052499998 0.0065542068 0.016687199
0.000375 0.0065542068 0.016687199
0.000225 0.0065542068 0.016650699
7.5000004e-05 0.0065542068 0.0166361
-7.5000004e-05 0.0065542068 0.016650699
-0.000225 0.0065542068 0.0166288
-0.000375 0.0065542068 0.0166215
-0.00052499998 0.0065542068 0.016643399
-0.00067500002 0.0065542068 0.0166288
-0.000825 0.0065542068 0.016606901
-0.00097499997 0.0065542068 0.016650699
-0.001125 0.0065542068 0.0165704
-0.001275 0.0065542068 0.0165412
-0.001425 0.0065542068 0.016504699
-0.001575 0.0065542068 0.016548499
-0.001725 0.0065542068 0.016548499
-0.001875 0.0065542068 0.0165777
-0.0020250001 0.0065542068 0.016599599
-0.002175 0.0065542068 0.0166288
-0.002325 0.0065542068 0.016599599
-0.002475 0.0065542068 0.016555799
-0.002625 0.0065542068 0.016563101
-0.0027749999 0.0065542068 0.0165777
-0.0029249999 0.0065542068 0.016614201
-0.0030749999 0.0065542068 0.0166215
-0.0032250001 0.0065542068 0.016606901
-0.0033750001 0.0065542068 0.016614201
-0.0035250001 0.0065542068 0.016614201
-0.003675 0.0065542068 0.016614201
-0.003825 0.0065542068 0.016563101
-0.0039750002 0.0065542068 0.016548499
-0.004125 0.0065542068 0.016519301
-0.0042750002 0.0065542068 0.016548499
-0.0044249999 0.0065542068 0.016606901
-0.0045750001 0.0065542068 0.016585
-0.0047249999 0.0065542068 0.016519301
-0.0048750001 0.0065542068 0.0165704
-0.0050249998 0.0065542068 0.0166288
-0.0051750001 0.0065542068 0.0165704
-0.0053249998 0.0065542068 0.016606901
-0.005475 0.0065542068 0.0165704
-0.0056250002 0.0065542068 0.016555799
-0.005775 0.0065542068 0.016519301
-0.0059250002 0.0065542068 0.0165412
-0.0060749999 0.0065542068 0.0165923
-0.0062250001 0.0065542068 0.016614201
-0.0063749999 0.0065542068 0.0165777
-0.0065250001 0.0065542068 0.016548499
-0.0066749998 0.0065542068 0.016585
-0.006825 0.0065542068 0.0165923
-0.0069749998 0.0065542068 0.0164974
-0.007125 0.0065542068 0.0165412
-0.0072750002 0.0065542068 0.016599599
-0.007425 0.0065542068 0.016555799
-0.0075750002 0.0065542068 0.016519301
-0.0077249999 0.0065542068 0.0165339
-0.0078750001 0.0065542068 0.0165923
-0.0080249999 0.0065542068 0.016555799
-0.0081749996 0.0065542068 0.0165412
-0.0083250003 0.0065542068 0.016519301
-0.008475 0.0065542068 0.016475501
-0.0086249998 0.0065542068 0.0164901
-0.0087750005 0.0065542068 0.0165412
-0.0089250002 0.0065542068 0.0165412
-0.009075 0.0065542068 0.0165412
-0.0092249997 0.0065542068 0.016322199
-0.0093750004 0.0065542068 0.0165704
-0.0095250001 0.0065542068 0.016563101
-0.0096749999 0.0065542068 0.0165266
-0.0098249996 0.0065542068 0.016519301
-0.0099750003 0.0065542068 0.0164901
-0.010125 0.0065542068 0.0164974
-0.010275 0.0065542068 0.016555799
-0.010425 0.0065542068 0.016548499
-0.010575 0.0065542068 0.0165339
-0.010725 0.0065542068 0.0165266
-0.010875 0.0065542068 0.016563101
-0.011025 0.0065542068 0.016585
-0.011175 0.0065542068 0.016563101
-0.011325 0.0065542068 0.016555799
-0.011475 0.0065542068 0.016519301
-0.011625 0.0065542068 0.0165266
-0.011775 0.0065542068 0.016519301
-0.011925 0.0065542068 0.0165266
-0.012075 0.0065542068 0.016504699
-0.012225 0.0065542068 0.016504699
-0.012375 0.0065542068 0.016555799
-0.012525 0.0065542068 0.0165266
-0.012675 0.0065542068 0.016548499
-0.012825 0.0065542068 0.0165339
-0.012975 0.0065542068 0.016563101
-0.013125 0.0065542068 0.0166361
-0.013275 0.0065542068 0.016555799
-0.013425 0.0065542068 0.016548499
-0.013575 0.0065542068 0.0164536
-0.013725 0.0065542068 0.016460899
-0.013875 0.0065542068 0.0164317
-0.014025 0.0065542068 0.0164025
-0.014175 0.0065542068 0.016468201
-0.014325 0.0065542068 0.0165266
-0.014475 0.0065542068 0.016519301
-0.014625 0.0065542068 0.0165339
-0.014775 0.0065542068 0.0165266
-0.014925 0.0065542068 0.016460899
-0.015075 0.0065542068 0.0166288
-0.015225 0.0065542068 0.016548499
-0.015375 0.0065542068 0.0165266
-0.015525 0.0065542068 0.0165777
-0.015675001 0.0065542068 0.016555799
-0.015825 0.0065542068 0.016555799
-0.015975 0.0065542068 0.016585
-0.016124999 0.0065542068 0.0166215
-0.016275 0.0065542068 0.0166361
-0.016425001 0.0065542068 0.016599599
-0.016574999 0.0065542068 0.0165923
-0.016725 0.0065542068 0.0166215
-0.016875001 0.0065542068 0.016701801
-0.017024999 0.0065542068 0.016658001
-0.017175 0.0065542068 0.016658001
-0.017325001 0.0065542068 0.016643399
-0.017475 0.0065542068 0.0166799
-0.017625 0.0065542068 0.016614201
-0.017774999 0.0065542068 0.0165704
-0.017925 0.0065542068 0.0166215
-0.018075 0.0065542068 0.016687199
-0.018224999 0.0065542068 0.0166361
-0.018375 0.0065542068 0.016555799
-0.018525001 0.0065542068 0.016643399
-0.018674999 0.0065542068 0.016606901
-0.018825 0.0065542068 0.0166215
-0.018975001 0.0065542068 0.0166215
-0.019125 0.0065542068 0.0166288
-0.019275 0.0065542068 0.016650699
-0.019424999 0.0065542068 0.016694499
-0.019575 0.0065542068 0.016687199
-0.019725 0.0065542068 0.016650699
-0.019874999 0.0065542068 0.0166799
-0.020025 0.0065542068 0.0167602
-0.020175001 0.0065542068 0.0167602
-0.020324999 0.0065542068 0.0166799
-0.020475 0.0065542068 0.016548499
-0.020625001 0.0065542068 0.0166799
-0.020775 0.0065542068 0.016606901
-0.020925 0.0065542068 0.0166361
-0.021074999 0.0065542068 0.016694499
-0.021225 0.0065542068 0.0167237
-0.021375 0.0065542068 0.016658001
-0.021524999 0.0065542068 0.016658001
-0.021675 0.0065542068 0.0166799
-0.021825001 0.0065542068 0.0166726
-0.021974999 0.0065542068 0.016731
-0.022125 0.0065542068 0.016745601
-0.022275001 0.0065542068 0.0166726
-0.022425 0.0065542068 0.0167675
-0.022575 0.0065542068 0.016687199
-0.022724999 0.0065542068 0.0167091
-0.022875 0.0065542068 0.0166726
-0.023025 0.0065542068 0.016650699
-0.023174999 0.0065542068 0.016738299
-0.023325 0.0065542068 0.0166799
-0.023475001 0.0065542068 0.0166799
-0.023624999 0.0065542068 0.016701801
-0.023775 0.0065542068 0.0166799
-0.023925001 0.0065542068 0.0166726
-0.024075 0.0065542068 0.016738299
-0.024225 0.0065542068 0.0167748
-0.024374999 0.0065542068 0.0167091
-0.024525 0.0065542068 0.016658001
-0.024675 0.0065542068 0.016782099
-0.024824999 0.0065542068 0.016796701
-0.024975 0.0065542068 0.0167164
-0.025125001 0.0065542068 0.016752901
-0.025274999 0.0065542068 0.0167675
-0.025425 0.0065542068 0.016687199
-0.025575001 0.0065542068 0.016782099
-0.025725 0.0065542068 0.0168113
-0.025875 0.0065542068 0.016796701
-0.026024999 0.0065542068 0.0168186
-0.026175 0.0065542068 0.016804
-0.026325 0.0065542068 0.0167602
-0.026474999 0.0065542068 0.016796701
-0.026625 0.0065542068 0.0167164
-0.026775001 0.0065542068 0.0167602
-0.026924999 0.0065542068 0.016920799
-0.027075 0.0065542068 0.016979201
-0.027225001 0.0065542068 0.0170084
-0.027375 0.0065542068 0.0169427
-0.027525 0.0065542068 0.0168989
-0.027674999 0.0065542068 0.016935401
-0.027825 0.0065542068 0.0169427
-0.027975 0.0065542068 0.017015699
-0.028124999 0.0065542068 0.0165412
-0.028275 0.0065542068 0.015628699
-0.028425001 0.0065542068 0.015417
-0.028574999 0.0065542068 0.0154462
-0.028725 0.0065542068 0.0155557
-0.028875001 0.0065542068 0.0161762
-0.029025 0.0065542068 0.0170522
-0.029175 0.0065542068 0.017030301
-0.029324999 0.0065542068 0.0169427
-0.029475 0.0065542068 0.016876999
-0.029625 0.0065542068 0.01695
-0.029774999 0.0065542068 0.016971899
-0.029925 0.0065542068 0.0169573
-0.030075001 0.0065542068 0.016964599
-0.030224999 0.0065542068 0.0170449
-0.030375 0.0065542068 0.0170084
-0.030525001 0.0065542068 0.016964599
-0.030675 0.0065542068 0.017074101
-0.030825 0.0065542068 0.0170084
-0.030974999 0.0065542068 0.0169865
-0.031125 0.0065542068 0.016979201
-0.031275 0.0065542068 0.0170814
-0.031424999 0.0065542068 0.0170522
-0.031575002 0.0065542068 0.017066799
-0.031725001 0.0065542068 0.0170522
-0.031874999 0.0065542068 0.0169865
-0.032024998 0.0065542068 0.0169865
-0.032175001 0.0065542068 0.016971899
-0.032325 0.0065542068 0.016964599
-0.032474998 0.0065542068 0.017015699
-0.032625001 0.0065542068 0.017015699
-0.032775 0.0065542068 0.0170449
-0.032924999 0.0065542068 0.017074101
-0.033075001 0.0065542068 0.0170449
-0.033225 0.0065542068 0.017161701
-0.033374999 0.0065542068 0.017074101
-0.033525001 0.0065542068 0.017096
-0.033675 0.0065542068 0.017198199
-0.033824999 0.0065542068 0.0171398
-0.033975001 0.0065542068 0.0172347
-0.034125 0.0065542068 0.0172858
-0.034274999 0.0065542068 0.0172201
-0.034425002 0.0065542068 0.017169001
-0.034575 0.0065542068 0.0171471
-0.034724999 0.0065542068 0.017066799
-0.034875002 0.0065542068 0.0171471
-0.035025001 0.0065542068 0.0171836
-0.035174999 0.0065542068 0.0171398
-0.035324998 0.0065542068 0.017198199
-0.035475001 0.0065542068 0.017212801
-0.035625 0.0065542068 0.017161701
-0.035774998 0.0065542068 0.0172712
-0.035925001 0.0065542068 0.017293099
-0.036075 0.0065542068 0.0172785
-0.036224999 0.0065542068 0.017307701
-0.036375001 0.0065542068 0.017315
-0.036525 0.0065542068 0.0172201
-0.036674999 0.0065542068 0.0171763
-0.036825001 0.0065542068 0.0173661
-0.036975 0.0065542068 0.0173296
-0.037124999 0.0065542068 0.017336899
-0.037275001 0.0065542068 0.0173661
-0.037425 0.0065542068 0.017387999
-0.037574999 0.0065542068 0.017387999
-0.037725002 0.0065542068 0.0173296
-0.037875 0.0065542068 0.017315
-0.038024999 0.0065542068 0.017387999
-0.038175002 0.0065542068 0.017387999
-0.038325001 0.0065542068 0.0173661
-0.038474999 0.0065542068 0.017395301
-0.038624998 0.0065542068 0.017395301
-0.038775001 0.0065542068 0.0174099
-0.038925 0.0065542068 0.017482899
-0.039074998 0.0065542068 0.0174172
-0.039225001 0.0065542068 0.017387999
-0.039375 0.0065542068 0.017439101
-0.039524999 0.0065542068 0.0173807
-0.039675001 0.0065542068 0.017482899
-0.039825 0.0065542068 0.017482899
-0.039974999 0.0065542068 0.017490201
-0.040125001 0.0065542068 0.0175194
-0.040275 0.0065542068 0.0176362
-0.040424999 0.0065542068 0.0175486
-0.040575001 0.0065542068 0.0175121
-0.040725 0.0065542068 0.0175194
-0.040874999 0.0065542068 0.017490201
-0.041025002 0.0065542068 0.0175121
-0.041175 0.0065542068 0.0175924
-0.041324999 0.0065542068 0.017614299
-0.041475002 0.0065542068 0.0176508
-0.041625001 0.0065542068 0.017614299
-0.041774999 0.0065542068 0.0176508
-0.041924998 0.0065542068 0.017672701
-0.042075001 0.0065542068 0.0175486
-0.042225 0.0065542068 0.017672701
-0.042374998 0.0065542068 0.0176581
-0.042525001 0.0065542068 0.0176946
-0.042675 0.0065542068 0.017709199
-0.042824998 0.0065542068 0.017709199
-0.042975001 0.0065542068 0.017723801
-0.043125 0.0065542068 0.017767601
-0.043274999 0.0065542068 0.0177457
-0.043425001 0.0065542068 0.017665399
-0.043575 0.0065542068 0.0176873
-0.043724999 0.0065542068 0.017723801
-0.043875001 0.0065542068 0.0177895
-0.044025 0.0065542068 0.017818701
-0.044174999 0.0065542068 0.0177895
-0.044325002 0.0065542068 0.0177311
-0.044475 0.0065542068 0.0177749
-0.044624999 0.0065542068 0.017818701
-0.044775002 0.0065542068 0.0179282
-0.044925001 0.0065542068 0.017906301
-0.045074999 0.0065542068 0.017906301
-0.045224998 0.0065542068 0.017891699
-0.045375001 0.0065542068 0.0178844
-0.045524999 0.0065542068 0.0178771
-0.045674998 0.0065542068 0.017847899
-0.045825001 0.0065542068 0.0178844
-0.045975 0.0065542068 0.0179647
-0.046124998 0.0065542068 0.0179647
-0.046275001 0.0065542068 0.0179282
-0.046425 0.0065542068 0.017993901
-0.046574999 0.0065542068 0.0179282
-0.046725001 0.0065542068 0.0179209
-0.046875 0.0065542068 0.0180523
-0.047024999 0.0065542068 0.018037699
-0.047175001 0.0065542068 0.0179355
-0.047325 0.0065542068 0.0180085
-0.047474999 0.0065542068 0.018045001
-0.047625002 0.0065542068 0.0180669
-0.047775 0.0065542068 0.018081499
-0.047924999 0.0065542068 0.018088801
-0.048075002 0.0065542068 0.018125299
-0.048225001 0.0065542068 0.0181545
-0.048374999 0.0065542068 0.018125299
-0.048525002 0.0065542068 0.018096101
-0.048675001 0.0065542068 0.018169099
-0.048824999 0.0065542068 0.018234801
-0.048974998 0.0065542068 0.0181983
-0.049125001 0.0065542068 0.0181983
-0.049275 0.0065542068 0.0182421
-0.049424998 0.0065542068 0.0182056
-0.049575001 0.0065542068 0.0182421
-0.049725 0.0065542068 0.018220199
-0.049874999 0.0065542068 0.0182421
-0.050025001 0.0065542068 0.0182494
-0.050175 0.0065542068 0.018220199
-0.050324999 0.0065542068 0.018278601
-0.050475001 0.0065542068 0.0182932
-0.050625 0.0065542068 0.018234801
-0.050774999 0.0065542068 0.0182567
-0.050925002 0.0065542068 0.018307799
-0.051075 0.0065542068 0.0183005
-0.051224999 0.0065542068 0.018366201
-0.051375002 0.0065542068 0.0183954
-0.051525 0.0065542068 0.018322401
-0.051674999 0.0065542068 0.0183516
-0.051825002 0.0065542068 0.018366201
-0.051975001 0.0065542068 0.018373501
-0.052124999 0.0065542068 0.0184319
-0.052274998 0.0065542068 0.018453799
-0.052425001 0.0065542068 0.018366201
-0.052575 0.0065542068 0.0184246
-0.052724998 0.0065542068 0.018417301
-0.052875001 0.0065542068 0.0184319
-0.053025 0.0065542068 0.0184392
-0.053174999 0.0065542068 0.0184757
-0.053325001 0.0065542068 0.0185195
-0.053475 0.0065542068 0.0185268
-0.053624999 0.0065542068 0.0185341
-0.053775001 0.0065542068 0.018548699
-0.053925 0.0065542068 0.018599801
-0.054074999 0.0065542068 0.0185706
-0.054225001 0.0065542068 0.0185779
-0.054375 0.0065542068 0.0186071
-0.054524999 0.0065542068 0.018650901
-0.054675002 0.0065542068 0.0186655
-0.054825 0.0065542068 0.018731199
-0.054974999 0.0065542068 0.018723899
-0.055125002 0.0065542068 0.0187166
-0.055275001 0.0065542068 0.0186655
-0.055424999 0.0065542068 0.018694701
-0.055574998 0.0065542068 0.018680099
-0.055725001 0.0065542068 0.0187531
-0.055875 0.0065542068 0.018826099
-0.056024998 0.0065542068 0.018833401
-0.056175001 0.0065542068 0.0187969
-0.056325 0.0065542068 0.0188042
-0.056474999 0.0065542068 0.0188918
-0.056625001 0.0065542068 0.0188918
-0.056775 0.0065542068 0.0188115
-0.056924999 0.0065542068 0.0187458
-0.057075001 0.0065542068 0.018848
-0.057225 0.0065542068 0.018964799
-0.057374999 0.0065542068 0.0189356
-0.057525001 0.0065542068 0.018957499
-0.057675 0.0065542068 0.018848
-0.057824999 0.0065542068 0.018928301
-0.057975002 0.0065542068 0.0190743
-0.058125 0.0065542068 0.019008599
-0.058274999 0.0065542068 0.0190013
-0.058425002 0.0065542068 0.0189867
-0.058575001 0.0065542068 0.018972101
-0.058724999 0.0065542068 0.0189794
-0.058874998 0.0065542068 0.0190232
-0.059025001 0.0065542068 0.0191181
-0.059175 0.0065542068 -inf
-0.059324998 0.0065542068 -inf
-0.059475001 0.0065542068 -inf
-0.059625 0.0065542068 -inf
-0.059774999 0.0065542068 -inf
0.059774999 0.0074905478 -inf
0.059625 0.0074905478 -inf
0.059475001 0.0074905478 -inf
0.059324998 0.0074905478 -inf
0.059175 0.0074905478 -inf
0.059025001 0.0074905478 -inf
0.058874998 0.0074905478 -inf
0.058724999 0.0074905478 -inf
0.058575001 0.0074905478 -inf
0.058425002 0.0074905478 -inf
0.058274999 0.0074905478 -inf
0.058125 0.0074905478 -inf
0.057975002 0.0074905478 -inf
0.057824999 0.0074905478 -inf
0.057675 0.0074905478 0.0196875
0.057525001 0.0074905478 0.019621801
0.057374999 0.0074905478 0.0196875
0.057225 0.0074905478 0.0196802
0.057075001 0.0074905478 0.0196802
0.056924999 0.0074905478 0.0196364
0.056775 0.0074905478 0.0196291
0.056625001 0.0074905478 0.019614501
0.056474999 0.0074905478 0.0195561
0.056325 0.0074905478 0.019526901
0.056175001 0.0074905478 0.0195853
0.056024998 0.0074905478 0.0195342
0.055875 0.0074905478 0.019475801
0.055725001 0.0074905478 0.019483101
0.055574998 0.0074905478 0.0195342
0.055424999 0.0074905478 0.019570701
0.055275001 0.0074905478 0.0194977
0.055125002 0.0074905478 0.0194174
0.054974999 0.0074905478 0.019475801
0.054825 0.0074905478 0.0194904
0.054675002 0.0074905478 0.019483101
0.054524999 0.0074905478 0.0194028
0.054375 0.0074905478 0.019475801
0.054225001 0.0074905478 0.019439301
0.054074999 0.0074905478 0.019432001
0.053925 0.0074905478 0.0194028
0.053775001 0.0074905478 0.0194028
0.053624999 0.0074905478 0.019373599
0.053475 0.0074905478 0.019344401
0.053325001 0.0074905478 0.019359
0.053174999 0.0074905478 0.019337101
0.053025 0.0074905478 0.019293301
0.052875001 0.0074905478 0.0192641
0.052724998 0.0074905478 0.019249501
0.052575 0.0074905478 0.019234899
0.052425001 0.0074905478 0.0192641
0.052274998 0.0074905478 0.019285999
0.052124999 0.0074905478 0.019161901
0.051975001 0.0074905478 0.0191765
0.051825002 0.0074905478 0.019205701
0.051674999 0.0074905478 0.0190816
0.051525 0.0074905478 0.0190816
0.051375002 0.0074905478 0.0191181
0.051224999 0.0074905478 0.0191838
0.051075 0.0074905478 0.019110801
0.050925002 0.0074905478 0.0190889
0.050774999 0.0074905478 0.0191181
0.050625 0.0074905478 0.019110801
0.050475001 0.0074905478 0.019096199
0.050324999 0.0074905478 0.019096199
0.050175 0.0074905478 0.0190889
0.050025001 0.0074905478 0.019103499
0.049874999 0.0074905478 0.019052399
0.049725 0.0074905478 0.0190743
0.049575001 0.0074905478 0.0188991
0.049424998 0.0074905478 0.018877201
0.049275 0.0074905478 0.018921001
0.049125001 0.0074905478 0.018913699
0.048974998 0.0074905478 0.0186728
0.048824999 0.0074905478 0.0176508
0.048675001 0.0074905478 0.0175121
0.048525002 0.0074905478 0.017307701
0.048374999 0.0074905478 0.017110599
0.048225001 0.0074905478 0.0177822
0.048075002 0.0074905478 0.018541399
0.047924999 0.0074905478 0.0188845
0.047775 0.0074905478 0.0188626
0.047625002 0.0074905478 0.018848
0.047474999 0.0074905478 0.018848
0.047325 0.0074905478 0.018774999
0.047175001 0.0074905478 0.018789601
0.047024999 0.0074905478 0.0187531
0.046875 0.0074905478 0.0187093
0.046725001 0.0074905478 0.018643601
0.046574999 0.0074905478 0.018650901
0.046425 0.0074905478 0.018636299
0.046275001 0.0074905478 0.018680099
0.046124998 0.0074905478 0.018687399
0.045975 0.0074905478 0.018650901
0.045825001 0.0074905478 0.018650901
0.045674998 0.0074905478 0.018694701
0.045524999 0.0074905478 0.0187166
0.045375001 0.0074905478 0.0187093
0.045224998 0.0074905478 0.018680099
0.045074999 0.0074905478 0.018585199
0.044925001 0.0074905478 0.0185195
0.044775002 0.0074905478 0.018585199
0.044624999 0.0074905478 0.018599801
0.044475 0.0074905478 0.018585199
0.044325002 0.0074905478 0.0184684
0.044174999 0.0074905478 0.018497599
0.044025 0.0074905478 0.018409999
0.043875001 0.0074905478 0.0184319
0.043724999 0.0074905478 0.0184319
0.043575 0.0074905478 0.018483
0.043425001 0.0074905478 0.0184757
0.043274999 0.0074905478 0.0184246
0.043125 0.0074905478 0.0184392
0.042975001 0.0074905478 0.0184903
0.042824998 0.0074905478 0.018512201
0.042675 0.0074905478 0.018504901
0.042525001 0.0074905478 0.018483
0.042374998 0.0074905478 0.018446499
0.042225 0.0074905478 0.018446499
0.042075001 0.0074905478 0.018402699
0.041924998 0.0074905478 0.0184246
0.041774999 0.0074905478 0.0183808
0.041625001 0.0074905478 0.018402699
0.041475002 0.0074905478 0.018402699
0.041324999 0.0074905478 0.018409999
0.041175 0.0074905478 0.0184392
0.041025002 0.0074905478 0.0183443
0.040874999 0.0074905478 0.0183516
0.040725 0.0074905478 0.0183881
0.040575001 0.0074905478 0.018373501
0.040424999 0.0074905478 0.0182932
0.040275 0.0074905478 0.018234801
0.040125001 0.0074905478 0.0182567
0.039974999 0.0074905478 0.0183005
0.039825 0.0074905478 0.0182567
0.039675001 0.0074905478 0.0182421
0.039524999 0.0074905478 0.0182129
0.039375 0.0074905478 0.0182129
0.039225001 0.0074905478 0.018132599
0.039074998 0.0074905478 0.018169099
0.038925 0.0074905478 0.018176399
0.038775001 0.0074905478 0.018139901
0.038624998 0.0074905478 0.018169099
0.038474999 0.0074905478 0.0181472
0.038325001 0.0074905478 0.018118
0.038175002 0.0074905478 0.018118
0.038024999 0.0074905478 0.018096101
0.037875 0.0074905478 0.0180669
0.037725002 0.0074905478 0.018096101
0.037574999 0.0074905478 0.018125299
0.037425 0.0074905478 0.018125299
0.037275001 0.0074905478 0.0180596
0.037124999 0.0074905478 0.017993901
0.036975 0.0074905478 0.018096101
0.036825001 0.0074905478 0.018096101
0.036674999 0.0074905478 0.018030399
0.036525 0.0074905478 0.0179136
0.036375001 0.0074905478 0.017957401
0.036224999 0.0074905478 0.0179793
0.036075 0.0074905478 0.0180158
0.035925001 0.0074905478 0.017986599
0.035774998 0.0074905478 0.017942799
0.035625 0.0074905478 0.017942799
0.035475001 0.0074905478 0.0179282
0.035324998 0.0074905478 0.017957401
0.035174999 0.0074905478 0.0179136
0.035025001 0.0074905478 0.017906301
0.034875002 0.0074905478 0.018030399
0.034724999 0.0074905478 0.017898999
0.034575 0.0074905478 0.017891699
0.034425002 0.0074905478 0.0179209
0.034274999 0.0074905478 0.0179355
0.034125 0.0074905478 0.0179136
0.033975001 0.0074905478 0.017855201
0.033824999 0.0074905478 0.0178333
0.033675 0.0074905478 0.0178771
0.033525001 0.0074905478 0.0178771
0.033374999 0.0074905478 0.017818701
0.033225 0.0074905478 0.0178406
0.033075001 0.0074905478 0.017811401
0.032924999 0.0074905478 0.0178333
0.032775 0.0074905478 0.0177822
0.032625001 0.0074905478 0.0177384
0.032474998 0.0074905478 0.017760299
0.032325 0.0074905478 0.0177968
0.032175001 0.0074905478 0.0177895
0.032024998 0.0074905478 0.017760299
0.031874999 0.0074905478 0.0176581
0.031725001 0.0074905478 0.0176362
0.031575002 0.0074905478 0.017709199
0.031424999 0.0074905478 0.017716501
0.031275 0.0074905478 0.0176435
0.031125 0.0074905478 0.0176946
0.030974999 0.0074905478 0.0177968
0.030825 0.0074905478 0.0176946
0.030675 0.0074905478 0.0176946
0.030525001 0.0074905478 0.0177019
0.030375 0.0074905478 0.0176581
0.030224999 0.0074905478 0.017614299
0.030075001 0.0074905478 0.017585101
0.029925 0.0074905478 0.0176362
0.029774999 0.0074905478 0.0176581
0.029625 0.0074905478 0.017628901
0.029475 0.0074905478 0.017621599
0.029324999 0.0074905478 0.0176508
0.029175 0.0074905478 0.017628901
0.029025 0.0074905478 0.0175632
0.028875001 0.0074905478 0.017621599
0.028725 0.0074905478 0.0175486
0.028574999 0.0074905478 0.0176435
0.028425001 0.0074905478 0.0175997
0.028275 0.0074905478 0.0175924
0.028124999 0.0074905478 0.0175048
0.027975 0.0074905478 0.017526699
0.027825 0.0074905478 0.017490201
0.027674999 0.0074905478 0.0175121
0.027525 0.0074905478 0.017570499
0.027375 0.0074905478 0.017570499
0.027225001 0.0074905478 0.017534001
0.027075 0.0074905478 0.017482899
0.026924999 0.0074905478 0.0174099
0.026775001 0.0074905478 0.0175121
0.026625 0.0074905478 0.0174683
0.026474999 0.0074905478 0.0174245
0.026325 0.0074905478 0.017446401
0.026175 0.0074905478 0.0174683
0.026024999 0.0074905478 0.0174172
0.025875 0.0074905478 0.017387999
0.025725 0.0074905478 0.017395301
0.025575001 0.0074905478 0.0173296
0.025425 0.0074905478 0.0173223
0.025274999 0.0074905478 0.017395301
0.025125001 0.0074905478 0.017387999
0.024975 0.0074905478 0.017300401
0.024824999 0.0074905478 0.017336899
0.024675 0.0074905478 0.017387999
0.024525 0.0074905478 0.017431799
0.024374999 0.0074905478 0.017351501
0.024225 0.0074905478 0.017315
0.024075 0.0074905478 0.0173661
0.023925001 0.0074905478 0.0173734
0.023775 0.0074905478 0.017315
0.023624999 0.0074905478 0.017336899
0.023475001 0.0074905478 0.017336899
0.023325 0.0074905478 0.0172858
0.023174999 0.0074905478 0.017293099
0.023025 0.0074905478 0.017315
0.022875 0.0074905478 0.0172858
0.022724999 0.0074905478 0.0172785
0.022575 0.0074905478 0.017300401
0.022425 0.0074905478 0.017212801
0.022275001 0.0074905478 0.0172712
0.022125 0.0074905478 0.0171909
0.021974999 0.0074905478 0.0173223
0.021825001 0.0074905478 0.0172639
0.021675 0.0074905478 0.017307701
0.021524999 0.0074905478 0.017256601
0.021375 0.0074905478 0.017212801
0.021225 0.0074905478 0.0172274
0.021074999 0.0074905478 0.017249299
0.020925 0.0074905478 0.017205499
0.020775 0.0074905478 0.0171325
0.020625001 0.0074905478 0.017110599
0.020475 0.0074905478 0.0171471
0.020324999 0.0074905478 0.0171325
0.020175001 0.0074905478 0.017110599
0.020025 0.0074905478 0.0171325
0.019874999 0.0074905478 0.0171763
0.019725 0.0074905478 0.0171398
0.019575 0.0074905478 0.0171398
0.019424999 0.0074905478 0.0171325
0.019275 0.0074905478 0.0170887
0.019125 0.0074905478 0.017103299
0.018975001 0.0074905478 0.0171398
0.018825 0.0074905478 0.017096
0.018674999 0.0074905478 0.017066799
0.018525001 0.0074905478 0.0170522
0.018375 0.0074905478 0.017110599
0.018224999 0.0074905478 0.0172201
0.018075 0.0074905478 0.0170887
0.017925 0.0074905478 0.017103299
0.017774999 0.0074905478 0.017059499
0.017625 0.0074905478 0.017059499
0.017475 0.0074905478 0.017066799
0.017325001 0.0074905478 0.0170887
0.017175 0.0074905478 0.017074101
0.017024999 0.0074905478 0.0170449
0.016875001 0.0074905478 0.017059499
0.016725 0.0074905478 0.0170011
0.016574999 0.0074905478 0.016928099
0.016425001 0.0074905478 0.0170522
0.016275 0.0074905478 0.016928099
0.016124999 0.0074905478 0.0168989
0.015975 0.0074905478 0.0168989
0.015825 0.0074905478 0.01695
0.015675001 0.0074905478 0.016964599
0.015525 0.0074905478 0.0169573
0.015375 0.0074905478 0.0169865
0.015225 0.0074905478 0.017015699
0.015075 0.0074905478 0.016979201
0.014925 0.0074905478 0.0169135
0.014775 0.0074905478 0.016884301
0.014625 0.0074905478 0.01695
0.014475 0.0074905478 0.0168624
0.014325 0.0074905478 0.016964599
0.014175 0.0074905478 0.017015699
0.014025 0.0074905478 0.016971899
0.013875 0.0074905478 0.01695
0.013725 0.0074905478 0.0169135
0.013575 0.0074905478 0.016964599
0.013425 0.0074905478 0.0170084
0.013275 0.0074905478 0.016979201
0.013125 0.0074905478 0.0169062
0.012975 0.0074905478 0.016876999
0.012825 0.0074905478 0.0168624
0.012675 0.0074905478 0.016884301
0.012525 0.0074905478 0.016920799
0.012375 0.0074905478 0.0168624
0.012225 0.0074905478 0.016876999
0.012075 0.0074905478 0.016825899
0.011925 0.0074905478 0.0168551
0.011775 0.0074905478 0.016891601
0.011625 0.0074905478 0.0167602
0.011475 0.0074905478 0.016782099
0.011325 0.0074905478 0.0168551
0.011175 0.0074905478 0.016833199
0.011025 0.0074905478 0.016804
0.010875 0.0074905478 0.0168551
0.010725 0.0074905478 0.0168551
0.010575 0.0074905478 0.0164025
0.010425 0.0074905478 0.0153367
0.010275 0.0074905478 0.0153513
0.010125 0.0074905478 0.0153002
0.0099750003 0.0074905478 0.015271
