# .PCD v0.7 - Point Cloud Data file format
VERSION 0.7
FIELDS x y z
SIZE 4 4 4
TYPE F F F
COUNT 1 1 1
WIDTH 1710
HEIGHT 1
VIEWPOINT 0 0 0 1 0 0 0
POINTS 1710
DATA ascii
-54.150002 -27.154314 17.4771
-54.299999 -27.154314 17.469801
-54.450001 -27.154314 17.513599
-54.599998 -27.154314 17.542801
-54.75 -27.154314 17.520901
-54.900002 -27.154314 17.4771
-55.049999 -27.154314 17.520901
-55.200001 -27.154314 17.542801
-55.349998 -27.154314 17.5574
-55.5 -27.154314 17.593901
-55.650002 -27.154314 17.6304
-55.799999 -27.154314 17.645
-55.950001 -27.154314 17.659599
-56.099998 -27.154314 17.6304
-56.25 -27.154314 17.6231
-56.400002 -27.154314 17.637699
-56.549999 -27.154314 17.7034
-56.700001 -27.154314 17.688801
-56.849998 -27.154314 17.6742
-57 -27.154314 17.666901
-57.150002 -27.154314 17.6742
-57.299999 -27.154314 17.681499
-57.450001 -27.154314 17.666901
-57.599998 -27.154314 17.637699
-57.75 -27.154314 17.615801
-57.900002 -27.154314 17.659599
-58.049999 -27.154314 17.732599
-58.200001 -27.154314 17.688801
-58.349998 -27.154314 17.688801
-58.5 -27.154314 17.718
-58.650002 -27.154314 17.7764
-58.799999 -27.154314 17.827499
-58.950001 -27.154314 17.827499
-59.099998 -27.154314 17.7983
-59.25 -27.154314 17.8713
-59.400002 -27.154314 17.856701
-59.549999 -27.154314 17.8202
-59.700001 -27.154314 17.7691
58.349998 -26.217974 17.5574
58.200001 -26.217974 17.513599
58.049999 -26.217974 17.5063
57.900002 -26.217974 17.513599
57.75 -26.217974 17.447901
57.599998 -26.217974 17.4114
57.450001 -26.217974 17.418699
57.299999 -26.217974 17.4041
57.150002 -26.217974 17.374901
57 -26.217974 17.345699
56.849998 -26.217974 17.3092
56.700001 -26.217974 17.323799
56.549999 -26.217974 17.3603
56.400002 -26.217974 17.3822
56.25 -26.217974 17.301901
56.099998 -26.217974 17.301901
55.950001 -26.217974 17.3165
55.799999 -26.217974 17.301901
55.650002 -26.217974 17.2873
55.5 -26.217974 17.280001
55.349998 -26.217974 17.272699
55.200001 -26.217974 17.2654
55.049999 -26.217974 17.2362
54.900002 -26.217974 17.2216
54.75 -26.217974 17.228901
54.599998 -26.217974 17.2143
54.450001 -26.217974 17.1924
54.299999 -26.217974 17.1705
54.150002 -26.217974 17.155899
54 -26.217974 17.0902
53.849998 -26.217974 17.0464
53.700001 -26.217974 17.0245
53.549999 -26.217974 17.061001
53.400002 -26.217974 17.0464
53.25 -26.217974 17.0172
53.099998 -26.217974 16.988001
52.950001 -26.217974 17.061001
52.799999 -26.217974 17.053699
52.650002 -26.217974 16.9807
52.5 -26.217974 16.9004
52.349998 -26.217974 16.9077
52.200001 -26.217974 16.9223
52.049999 -26.217974 16.936899
51.900002 -26.217974 16.9077
51.75 -26.217974 16.8347
51.599998 -26.217974 16.798201
51.450001 -26.217974 16.841999
51.299999 -26.217974 16.812799
51.150002 -26.217974 16.7836
51 -26.217974 16.768999
50.849998 -26.217974 16.812799
50.700001 -26.217974 16.768999
50.549999 -26.217974 16.717899
50.400002 -26.217974 16.695999
50.25 -26.217974 16.674101
50.099998 -26.217974 16.6595
49.950001 -26.217974 16.6595
49.799999 -26.217974 16.674101
49.650002 -26.217974 16.652201
49.5 -26.217974 16.630301
49.349998 -26.217974 16.630301
49.200001 -26.217974 16.630301
49.049999 -26.217974 16.622999
48.900002 -26.217974 16.6157
48.75 -26.217974 16.5646
48.599998 -26.217974 16.557301
48.450001 -26.217974 16.5646
48.299999 -26.217974 16.5646
48.150002 -26.217974 16.557301
48 -26.217974 16.506201
47.849998 -26.217974 16.4697
47.700001 -26.217974 16.476999
47.549999 -26.217974 16.4916
47.400002 -26.217974 16.4916
47.25 -26.217974 16.4624
47.099998 -26.217974 16.4624
46.950001 -26.217974 16.506201
46.799999 -26.217974 16.5135
46.650002 -26.217974 16.4186
46.5 -26.217974 16.3967
46.349998 -26.217974 16.3894
46.200001 -26.217974 16.3894
46.049999 -26.217974 16.3894
45.900002 -26.217974 16.3967
45.75 -26.217974 16.411301
45.599998 -26.217974 16.4405
45.450001 -26.217974 16.3894
45.299999 -26.217974 16.3529
45.150002 -26.217974 16.330999
45 -26.217974 16.3675
44.849998 -26.217974 16.3456
44.700001 -26.217974 16.316401
44.549999 -26.217974 16.3018
44.400002 -26.217974 16.2799
44.25 -26.217974 16.265301
44.099998 -26.217974 16.265301
43.950001 -26.217974 16.265301
43.799999 -26.217974 16.257999
43.650002 -26.217974 16.2288
43.5 -26.217974 16.192301
43.349998 -26.217974 16.163099
43.200001 -26.217974 16.1485
43.049999 -26.217974 16.1485
42.900002 -26.217974 16.184999
42.75 -26.217974 16.1996
42.599998 -26.217974 16.192301
42.450001 -26.217974 16.1558
42.299999 -26.217974 16.141199
42.150002 -26.217974 16.141199
42 -26.217974 16.163099
41.849998 -26.217974 16.163099
41.700001 -26.217974 16.1339
41.549999 -26.217974 16.112
41.400002 -26.217974 16.119301
41.25 -26.217974 16.1047
41.099998 -26.217974 16.1047
40.950001 -26.217974 16.119301
40.799999 -26.217974 16.0755
40.650002 -26.217974 16.090099
40.5 -26.217974 16.119301
40.349998 -26.217974 16.119301
40.200001 -26.217974 16.0609
40.049999 -26.217974 16.017099
39.900002 -26.217974 16.002501
39.75 -26.217974 15.9587
39.599998 -26.217974 15.9806
39.450001 -26.217974 16.0098
39.299999 -26.217974 15.966
39.150002 -26.217974 15.9587
39 -26.217974 15.9587
38.849998 -26.217974 15.9441
38.700001 -26.217974 15.9806
38.549999 -26.217974 15.966
38.400002 -26.217974 15.9222
38.25 -26.217974 15.9149
38.099998 -26.217974 15.9149
37.950001 -26.217974 15.9368
37.799999 -26.217974 15.966
37.650002 -26.217974 15.9222
37.5 -26.217974 15.9295
37.349998 -26.217974 15.966
37.200001 -26.217974 15.966
37.049999 -26.217974 15.9076
36.900002 -26.217974 15.8638
36.75 -26.217974 15.8784
36.599998 -26.217974 15.8857
36.450001 -26.217974 15.8565
36.299999 -26.217974 15.8054
36.150002 -26.217974 15.8273
36 -26.217974 15.8273
35.849998 -26.217974 15.8127
35.700001 -26.217974 15.7835
35.549999 -26.217974 15.7981
35.400002 -26.217974 15.8127
35.25 -26.217974 15.8054
35.099998 -26.217974 15.7324
34.950001 -26.217974 15.7251
34.799999 -26.217974 15.7324
34.650002 -26.217974 15.747
34.5 -26.217974 15.7251
34.349998 -26.217974 15.7178
34.200001 -26.217974 15.7105
34.049999 -26.217974 15.747
33.900002 -26.217974 15.7324
33.75 -26.217974 15.6959
33.599998 -26.217974 15.6375
33.450001 -26.217974 15.7105
33.299999 -26.217974 15.7032
33.150002 -26.217974 15.6521
33 -26.217974 15.7032
32.849998 -26.217974 15.7105
32.700001 -26.217974 15.6959
32.549999 -26.217974 15.7105
32.400002 -26.217974 15.6959
32.25 -26.217974 15.6813
32.099998 -26.217974 15.6667
31.950001 -26.217974 15.6521
31.799999 -26.217974 15.6448
31.65 -26.217974 15.6375
31.5 -26.217974 15.6448
31.35 -26.217974 15.5426
31.200001 -26.217974 15.5134
31.049999 -26.217974 15.528
30.9 -26.217974 15.528
30.75 -26.217974 15.5207
30.6 -26.217974 15.5353
30.450001 -26.217974 15.6156
30.299999 -26.217974 15.5645
30.15 -26.217974 15.5645
30 -26.217974 15.6083
29.85 -26.217974 15.6083
29.700001 -26.217974 15.5791
29.549999 -26.217974 15.5353
29.4 -26.217974 15.4988
29.25 -26.217974 15.4915
29.1 -26.217974 15.528
28.950001 -26.217974 15.5718
28.799999 -26.217974 15.4988
28.65 -26.217974 15.4696
28.5 -26.217974 15.4623
28.35 -26.217974 15.5061
28.200001 -26.217974 15.4623
28.049999 -26.217974 15.4477
27.9 -26.217974 15.4915
27.75 -26.217974 15.4477
27.6 -26.217974 15.4404
27.450001 -26.217974 15.455
27.299999 -26.217974 15.455
27.15 -26.217974 15.4696
27 -26.217974 15.4696
26.85 -26.217974 15.4258
26.700001 -26.217974 15.455
26.549999 -26.217974 15.455
26.4 -26.217974 15.4331
26.25 -26.217974 15.4258
26.1 -26.217974 15.3966
25.950001 -26.217974 15.3674
25.799999 -26.217974 15.3747
25.65 -26.217974 15.382
25.5 -26.217974 15.3893
25.35 -26.217974 15.382
25.200001 -26.217974 15.382
25.049999 -26.217974 15.382
24.9 -26.217974 15.4039
24.75 -26.217974 15.4258
24.6 -26.217974 15.3747
24.450001 -26.217974 15.3309
24.299999 -26.217974 15.3236
24.15 -26.217974 15.3236
24 -26.217974 15.3236
23.85 -26.217974 15.3236
23.700001 -26.217974 15.3017
23.549999 -26.217974 15.309
23.4 -26.217974 15.3382
23.25 -26.217974 15.3528
23.1 -26.217974 15.3163
22.950001 -26.217974 15.2871
22.799999 -26.217974 15.2871
22.65 -26.217974 15.2871
22.5 -26.217974 15.3236
22.35 -26.217974 15.3528
22.200001 -26.217974 15.3528
22.049999 -26.217974 15.3236
21.9 -26.217974 15.309
21.75 -26.217974 15.3236
21.6 -26.217974 15.2798
21.450001 -26.217974 15.2944
21.299999 -26.217974 15.3455
21.15 -26.217974 15.3236
21 -26.217974 15.3236
20.85 -26.217974 15.3309
20.700001 -26.217974 15.3163
20.549999 -26.217974 15.2652
20.4 -26.217974 15.2141
20.25 -26.217974 15.1849
20.1 -26.217974 15.2287
19.950001 -26.217974 15.2579
19.799999 -26.217974 15.2798
19.65 -26.217974 15.2871
19.5 -26.217974 15.3163
19.35 -26.217974 15.309
19.200001 -26.217974 15.2506
19.049999 -26.217974 15.2725
18.9 -26.217974 15.3017
18.75 -26.217974 15.309
18.6 -26.217974 15.236
18.450001 -26.217974 15.2287
18.299999 -26.217974 15.2068
18.15 -26.217974 15.1119
18 -26.217974 15.1338
17.85 -26.217974 15.1776
17.700001 -26.217974 15.236
17.549999 -26.217974 15.2798
17.4 -26.217974 15.2871
17.25 -26.217974 15.2725
17.1 -26.217974 15.2652
16.950001 -26.217974 15.163
16.799999 -26.217974 15.1265
16.65 -26.217974 15.1703
16.5 -26.217974 15.236
16.35 -26.217974 15.2433
16.200001 -26.217974 15.2068
16.049999 -26.217974 15.1557
15.9 -26.217974 15.1411
15.75 -26.217974 15.163
15.6 -26.217974 15.2068
15.45 -26.217974 15.1703
15.3 -26.217974 15.1484
15.15 -26.217974 15.163
15 -26.217974 15.2141
14.85 -26.217974 15.1849
14.7 -26.217974 15.1411
14.55 -26.217974 15.1557
14.4 -26.217974 15.1557
14.25 -26.217974 15.1557
14.1 -26.217974 15.1922
13.95 -26.217974 15.1849
13.8 -26.217974 15.1776
13.65 -26.217974 15.1849
13.5 -26.217974 15.1557
13.35 -26.217974 15.1557
13.2 -26.217974 15.163
13.05 -26.217974 15.1484
12.9 -26.217974 15.1265
12.75 -26.217974 15.0973
12.6 -26.217974 15.0681
12.45 -26.217974 15.1338
12.3 -26.217974 15.1192
12.15 -26.217974 15.0827
12 -26.217974 15.1192
11.85 -26.217974 15.1046
11.7 -26.217974 15.1119
11.55 -26.217974 15.1703
11.4 -26.217974 15.163
11.25 -26.217974 15.1484
11.1 -26.217974 15.1265
10.95 -26.217974 15.1557
10.8 -26.217974 15.1192
10.65 -26.217974 15.0973
10.5 -26.217974 15.1338
10.35 -26.217974 15.1265
10.2 -26.217974 15.1192
10.05 -26.217974 15.1265
9.8999996 -26.217974 15.09
9.75 -26.217974 15.1192
9.6000004 -26.217974 15.163
9.4499998 -26.217974 15.163
9.3000002 -26.217974 15.1557
9.1499996 -26.217974 15.1411
9 -26.217974 15.0973
8.8500004 -26.217974 15.163
8.6999998 -26.217974 15.1849
8.5500002 -26.217974 15.1703
8.3999996 -26.217974 15.163
8.25 -26.217974 15.1411
8.1000004 -26.217974 15.1338
7.9499998 -26.217974 15.1922
7.8000002 -26.217974 15.1922
7.6500001 -26.217974 15.1703
7.5 -26.217974 15.1411
7.3499999 -26.217974 15.1411
7.1999998 -26.217974 15.1484
7.0500002 -26.217974 15.1703
6.9000001 -26.217974 15.1703
6.75 -26.217974 15.1557
6.5999999 -26.217974 15.1411
6.4499998 -26.217974 15.163
6.3000002 -26.217974 15.1265
6.1500001 -26.217974 15.0973
6 -26.217974 15.0754
5.8499999 -26.217974 15.09
5.6999998 -26.217974 15.0973
5.5500002 -26.217974 15.0973
5.4000001 -26.217974 15.0973
5.25 -26.217974 15.1265
5.0999999 -26.217974 15.1411
4.9499998 -26.217974 15.1192
4.8000002 -26.217974 15.163
4.6500001 -26.217974 15.1703
4.5 -26.217974 15.1557
4.3499999 -26.217974 15.1192
4.1999998 -26.217974 15.1338
4.0500002 -26.217974 15.1557
3.9000001 -26.217974 15.1776
3.75 -26.217974 15.163
3.5999999 -26.217974 15.1484
3.45 -26.217974 15.1557
3.3 -26.217974 15.0681
3.1500001 -26.217974 15.017
3 -26.217974 15.017
2.8499999 -26.217974 15.0681
2.7 -26.217974 15.0973
2.55 -26.217974 15.1119
2.4000001 -26.217974 15.1265
2.25 -26.217974 15.09
2.0999999 -26.217974 15.1046
1.95 -26.217974 15.1484
1.8 -26.217974 15.1922
1.65 -26.217974 15.1922
1.5 -26.217974 15.1849
1.35 -26.217974 15.1849
1.2 -26.217974 15.1995
1.05 -26.217974 15.1995
0.89999998 -26.217974 15.1703
0.75 -26.217974 15.1119
0.60000002 -26.217974 15.1484
0.44999999 -26.217974 15.1849
0.30000001 -26.217974 15.1484
0.15000001 -26.217974 15.2068
7.1054274e-15 -26.217974 15.1849
-0.15000001 -26.217974 15.0827
-0.30000001 -26.217974 15.1557
-0.44999999 -26.217974 15.2141
-0.60000002 -26.217974 15.2433
-0.75 -26.217974 15.1995
-0.89999998 -26.217974 15.1849
-1.05 -26.217974 15.163
-1.2 -26.217974 15.1265
-1.35 -26.217974 15.1922
-1.5 -26.217974 15.2287
-1.65 -26.217974 15.2214
-1.8 -26.217974 15.1922
-1.95 -26.217974 15.1776
-2.0999999 -26.217974 15.1776
-2.25 -26.217974 15.2214
-2.4000001 -26.217974 15.1922
-2.55 -26.217974 15.163
-2.7 -26.217974 15.1776
-2.8499999 -26.217974 15.2579
-3 -26.217974 15.2798
-3.1500001 -26.217974 15.2506
-3.3 -26.217974 15.2652
-3.45 -26.217974 15.3017
-3.5999999 -26.217974 15.3236
-3.75 -26.217974 15.2871
-3.9000001 -26.217974 15.2871
-4.0500002 -26.217974 15.2725
-4.1999998 -26.217974 15.2579
-4.3499999 -26.217974 15.2579
-4.5 -26.217974 15.2433
-4.6500001 -26.217974 15.2214
-4.8000002 -26.217974 15.2141
-4.9499998 -26.217974 15.1849
-5.0999999 -26.217974 15.1776
-5.25 -26.217974 15.1922
-5.4000001 -26.217974 15.2214
-5.5500002 -26.217974 15.2579
-5.6999998 -26.217974 15.2944
-5.8499999 -26.217974 15.3163
-6 -26.217974 15.3163
-6.1500001 -26.217974 15.309
-6.3000002 -26.217974 15.3017
-6.4499998 -26.217974 15.2652
-6.5999999 -26.217974 15.2506
-6.75 -26.217974 15.2725
-6.9000001 -26.217974 15.2725
-7.0500002 -26.217974 15.2944
-7.1999998 -26.217974 15.3236
-7.3499999 -26.217974 15.3455
-7.5 -26.217974 15.3309
-7.6500001 -26.217974 15.3455
-7.8000002 -26.217974 15.4404
-7.9499998 -26.217974 15.382
-8.1000004 -26.217974 15.3601
-8.25 -26.217974 15.3455
-8.3999996 -26.217974 15.3455
-8.5500002 -26.217974 15.3382
-8.6999998 -26.217974 15.3309
-8.8500004 -26.217974 15.309
-9 -26.217974 15.2944
-9.1499996 -26.217974 15.3236
-9.3000002 -26.217974 15.3966
-9.4499998 -26.217974 15.3455
-9.6000004 -26.217974 15.3455
-9.75 -26.217974 15.3601
-9.8999996 -26.217974 15.382
-10.05 -26.217974 15.382
-10.2 -26.217974 15.3747
-10.35 -26.217974 15.3893
-10.5 -26.217974 15.4696
-10.65 -26.217974 15.4623
-10.8 -26.217974 15.4112
-10.95 -26.217974 15.3747
-11.1 -26.217974 15.382
-11.25 -26.217974 15.3893
-11.4 -26.217974 15.3528
-11.55 -26.217974 15.3966
-11.7 -26.217974 15.4112
-11.85 -26.217974 15.3893
-12 -26.217974 15.4112
-12.15 -26.217974 15.4185
-12.3 -26.217974 15.3893
-12.45 -26.217974 15.3309
-12.6 -26.217974 15.3236
-12.75 -26.217974 15.3455
-12.9 -26.217974 15.3966
-13.05 -26.217974 15.4331
-13.2 -26.217974 15.4769
-13.35 -26.217974 15.5134
-13.5 -26.217974 15.4404
-13.65 -26.217974 15.4258
-13.8 -26.217974 15.4185
-13.95 -26.217974 15.3893
-14.1 -26.217974 15.4696
-14.25 -26.217974 15.5134
-14.4 -26.217974 15.4988
-14.55 -26.217974 15.5426
-14.7 -26.217974 15.528
-14.85 -26.217974 15.4988
-15 -26.217974 15.4915
-15.15 -26.217974 15.4623
-15.3 -26.217974 15.4623
-15.45 -26.217974 15.5134
-15.6 -26.217974 15.4842
-15.75 -26.217974 15.4696
-15.9 -26.217974 15.4842
-16.049999 -26.217974 15.5061
-16.200001 -26.217974 15.4769
-16.35 -26.217974 15.455
-16.5 -26.217974 15.4915
-16.65 -26.217974 15.4769
-16.799999 -26.217974 15.4623
-16.950001 -26.217974 15.4623
-17.1 -26.217974 15.4404
-17.25 -26.217974 15.4696
-17.4 -26.217974 15.5061
-17.549999 -26.217974 15.4842
-17.700001 -26.217974 15.5791
-17.85 -26.217974 15.6302
-18 -26.217974 15.5937
-18.15 -26.217974 15.5791
-18.299999 -26.217974 15.5718
-18.450001 -26.217974 15.5718
-18.6 -26.217974 15.5572
-18.75 -26.217974 15.5937
-18.9 -26.217974 15.6594
-19.049999 -26.217974 15.7251
-19.200001 -26.217974 15.6375
-19.35 -26.217974 15.6229
-19.5 -26.217974 15.6594
-19.65 -26.217974 15.6813
-19.799999 -26.217974 15.6521
-19.950001 -26.217974 15.6156
-20.1 -26.217974 15.6156
-20.25 -26.217974 15.6229
-20.4 -26.217974 15.6594
-20.549999 -26.217974 15.7105
-20.700001 -26.217974 15.6667
-20.85 -26.217974 15.6302
-21 -26.217974 15.601
-21.15 -26.217974 15.6302
-21.299999 -26.217974 15.6375
-21.450001 -26.217974 15.6302
-21.6 -26.217974 15.6229
-21.75 -26.217974 15.6813
-21.9 -26.217974 15.6959
-22.049999 -26.217974 15.6594
-22.200001 -26.217974 15.7032
-22.35 -26.217974 15.7324
-22.5 -26.217974 15.7543
-22.65 -26.217974 15.7616
-22.799999 -26.217974 15.747
-22.950001 -26.217974 15.7397
-23.1 -26.217974 15.7543
-23.25 -26.217974 15.8346
-23.4 -26.217974 15.82
-23.549999 -26.217974 15.7835
-23.700001 -26.217974 15.8565
-23.85 -26.217974 15.8492
-24 -26.217974 15.8273
-24.15 -26.217974 15.82
-24.299999 -26.217974 15.82
-24.450001 -26.217974 15.8127
-24.6 -26.217974 15.7835
-24.75 -26.217974 15.8638
-24.9 -26.217974 15.8784
-25.049999 -26.217974 15.8638
-25.200001 -26.217974 15.8419
-25.35 -26.217974 15.8273
-25.5 -26.217974 15.8273
-25.65 -26.217974 15.8419
-25.799999 -26.217974 15.893
-25.950001 -26.217974 15.9514
-26.1 -26.217974 15.9879
-26.25 -26.217974 15.9441
-26.4 -26.217974 15.9295
-26.549999 -26.217974 15.9149
-26.700001 -26.217974 15.893
-26.85 -26.217974 15.9076
-27 -26.217974 15.9368
-27.15 -26.217974 15.9733
-27.299999 -26.217974 16.0098
-27.450001 -26.217974 16.002501
-27.6 -26.217974 16.002501
-27.75 -26.217974 16.046301
-27.9 -26.217974 16.0755
-28.049999 -26.217974 16.0609
-28.200001 -26.217974 16.002501
-28.35 -26.217974 15.9952
-28.5 -26.217974 16.017099
-28.65 -26.217974 16.039
-28.799999 -26.217974 16.0098
-28.950001 -26.217974 16.024401
-29.1 -26.217974 16.039
-29.25 -26.217974 16.046301
-29.4 -26.217974 16.068199
-29.549999 -26.217974 16.090099
-29.700001 -26.217974 16.119301
-29.85 -26.217974 16.119301
-30 -26.217974 16.1266
-30.15 -26.217974 16.141199
-30.299999 -26.217974 16.1266
-30.450001 -26.217974 16.097401
-30.6 -26.217974 16.112
-30.75 -26.217974 16.1558
-30.9 -26.217974 16.097401
-31.049999 -26.217974 16.0755
-31.200001 -26.217974 16.0755
-31.35 -26.217974 16.097401
-31.5 -26.217974 16.119301
-31.65 -26.217974 16.1339
-31.799999 -26.217974 16.1485
-31.950001 -26.217974 16.236099
-32.099998 -26.217974 16.243401
-32.25 -26.217974 16.214199
-32.400002 -26.217974 16.192301
-32.549999 -26.217974 16.1266
-32.700001 -26.217974 16.112
-32.849998 -26.217974 16.184999
-33 -26.217974 16.1996
-33.150002 -26.217974 16.1996
-33.299999 -26.217974 16.1777
-33.450001 -26.217974 16.2069
-33.599998 -26.217974 16.236099
-33.75 -26.217974 16.2726
-33.900002 -26.217974 16.309099
-34.049999 -26.217974 16.257999
-34.200001 -26.217974 16.2507
-34.349998 -26.217974 16.2799
-34.5 -26.217974 16.309099
-34.650002 -26.217974 16.3456
-34.799999 -26.217974 16.3529
-34.950001 -26.217974 16.265301
-35.099998 -26.217974 16.316401
-35.25 -26.217974 16.360201
-35.400002 -26.217974 16.3894
-35.549999 -26.217974 16.3967
-35.700001 -26.217974 16.3748
-35.849998 -26.217974 16.3456
-36 -26.217974 16.338301
-36.150002 -26.217974 16.382099
-36.299999 -26.217974 16.4186
-36.450001 -26.217974 16.3967
-36.599998 -26.217974 16.3967
-36.75 -26.217974 16.4186
-36.900002 -26.217974 16.4624
-37.049999 -26.217974 16.455099
-37.200001 -26.217974 16.476999
-37.349998 -26.217974 16.506201
-37.5 -26.217974 16.5208
-37.650002 -26.217974 16.5208
-37.799999 -26.217974 16.498899
-37.950001 -26.217974 16.476999
-38.099998 -26.217974 16.5208
-38.25 -26.217974 16.5208
-38.400002 -26.217974 16.498899
-38.549999 -26.217974 16.498899
-38.700001 -26.217974 16.5208
-38.849998 -26.217974 16.5135
-39 -26.217974 16.4697
-39.150002 -26.217974 16.5427
-39.299999 -26.217974 16.571899
-39.450001 -26.217974 16.549999
-39.599998 -26.217974 16.4916
-39.75 -26.217974 16.5208
-39.900002 -26.217974 16.5646
-40.049999 -26.217974 16.6157
-40.200001 -26.217974 16.6157
-40.349998 -26.217974 16.622999
-40.5 -26.217974 16.6157
-40.650002 -26.217974 16.6157
-40.799999 -26.217974 16.601101
-40.950001 -26.217974 16.579201
-41.099998 -26.217974 16.579201
-41.25 -26.217974 16.579201
-41.400002 -26.217974 16.622999
-41.549999 -26.217974 16.7033
-41.700001 -26.217974 16.7033
-41.849998 -26.217974 16.6887
-42 -26.217974 16.6814
-42.150002 -26.217974 16.695999
-42.299999 -26.217974 16.7033
-42.450001 -26.217974 16.7106
-42.599998 -26.217974 16.695999
-42.75 -26.217974 16.7325
-42.900002 -26.217974 16.747101
-43.049999 -26.217974 16.7544
-43.200001 -26.217974 16.747101
-43.349998 -26.217974 16.790899
-43.5 -26.217974 16.820101
-43.650002 -26.217974 16.8347
-43.799999 -26.217974 16.841999
-43.950001 -26.217974 16.8785
-44.099998 -26.217974 16.9077
-44.25 -26.217974 16.8493
-44.400002 -26.217974 16.863899
-44.549999 -26.217974 16.893101
-44.700001 -26.217974 16.915001
-44.849998 -26.217974 16.871201
-45 -26.217974 16.8493
-45.150002 -26.217974 16.8566
-45.299999 -26.217974 16.9077
-45.450001 -26.217974 16.9223
-45.599998 -26.217974 16.915001
-45.75 -26.217974 16.8785
-45.900002 -26.217974 16.9296
-46.049999 -26.217974 16.958799
-46.200001 -26.217974 16.944201
-46.349998 -26.217974 16.9734
-46.5 -26.217974 16.988001
-46.650002 -26.217974 16.9734
-46.799999 -26.217974 16.9807
-46.950001 -26.217974 17.0245
-47.099998 -26.217974 17.053699
-47.25 -26.217974 17.061001
-47.400002 -26.217974 17.0464
-47.549999 -26.217974 17.053699
-47.700001 -26.217974 17.082899
-47.849998 -26.217974 17.039101
-48 -26.217974 17.009899
-48.150002 -26.217974 17.0026
-48.299999 -26.217974 17.0245
-48.450001 -26.217974 17.053699
-48.599998 -26.217974 17.061001
-48.75 -26.217974 17.0172
-48.900002 -26.217974 17.061001
-49.049999 -26.217974 17.104799
-49.200001 -26.217974 17.134001
-49.349998 -26.217974 17.126699
-49.5 -26.217974 17.1194
-49.650002 -26.217974 17.1413
-49.799999 -26.217974 17.2143
-49.950001 -26.217974 17.207001
-50.099998 -26.217974 17.199699
-50.25 -26.217974 17.207001
-50.400002 -26.217974 17.258101
-50.549999 -26.217974 17.2435
-50.700001 -26.217974 17.2143
-50.849998 -26.217974 17.2216
-51 -26.217974 17.3092
-51.150002 -26.217974 17.3311
-51.299999 -26.217974 17.280001
-51.450001 -26.217974 17.280001
-51.599998 -26.217974 17.301901
-51.75 -26.217974 17.3165
-51.900002 -26.217974 17.2873
-52.049999 -26.217974 17.3165
-52.200001 -26.217974 17.345699
-52.349998 -26.217974 17.345699
-52.5 -26.217974 17.345699
-52.650002 -26.217974 17.3895
-52.799999 -26.217974 17.4333
-52.950001 -26.217974 17.3895
-53.099998 -26.217974 17.426001
-53.25 -26.217974 17.4625
-53.400002 -26.217974 17.4844
-53.549999 -26.217974 17.491699
-53.700001 -26.217974 17.4625
-53.849998 -26.217974 17.426001
-54 -26.217974 17.4625
-54.150002 -26.217974 17.469801
-54.299999 -26.217974 17.4771
-54.450001 -26.217974 17.5063
-54.599998 -26.217974 17.499001
-54.75 -26.217974 17.5063
-54.900002 -26.217974 17.5355
-55.049999 -26.217974 17.499001
-55.200001 -26.217974 17.5282
-55.349998 -26.217974 17.5574
-55.5 -26.217974 17.572001
-55.650002 -26.217974 17.593901
-55.799999 -26.217974 17.6012
-55.950001 -26.217974 17.586599
-56.099998 -26.217974 17.6304
-56.25 -26.217974 17.6304
-56.400002 -26.217974 17.615801
-56.549999 -26.217974 17.615801
-56.700001 -26.217974 17.710699
-56.849998 -26.217974 17.6961
-57 -26.217974 17.615801
-57.150002 -26.217974 17.6523
-57.299999 -26.217974 17.666901
-57.450001 -26.217974 17.688801
-57.599998 -26.217974 17.732599
-57.75 -26.217974 17.732599
-57.900002 -26.217974 17.739901
-58.049999 -26.217974 17.754499
-58.200001 -26.217974 17.7764
-58.349998 -26.217974 17.7764
-58.5 -26.217974 17.761801
-58.650002 -26.217974 17.761801
-58.799999 -26.217974 17.7034
-58.950001 -26.217974 17.718
-59.099998 -26.217974 17.805599
-59.25 -26.217974 17.8202
-59.400002 -26.217974 17.8202
-59.549999 -26.217974 17.7764
-59.700001 -26.217974 17.688801
58.5 -25.281631 17.4625
58.349998 -25.281631 17.4844
58.200001 -25.281631 17.4552
58.049999 -25.281631 17.426001
57.900002 -25.281631 17.440599
57.75 -25.281631 17.418699
57.599998 -25.281631 17.4041
57.450001 -25.281631 17.418699
57.299999 -25.281631 17.4041
57.150002 -25.281631 17.3822
57 -25.281631 17.367599
56.849998 -25.281631 17.353001
56.700001 -25.281631 17.345699
56.549999 -25.281631 17.2946
56.400002 -25.281631 17.258101
56.25 -25.281631 17.2946
56.099998 -25.281631 17.301901
55.950001 -25.281631 17.2946
55.799999 -25.281631 17.258101
55.650002 -25.281631 17.2946
55.5 -25.281631 17.280001
55.349998 -25.281631 17.2435
55.200001 -25.281631 17.2435
55.049999 -25.281631 17.228901
54.900002 -25.281631 17.2143
54.75 -25.281631 17.185101
54.599998 -25.281631 17.0683
54.450001 -25.281631 17.1194
54.299999 -25.281631 17.1705
54.150002 -25.281631 17.1413
54 -25.281631 17.039101
53.849998 -25.281631 17.0026
53.700001 -25.281631 17.009899
53.549999 -25.281631 17.061001
53.400002 -25.281631 17.0026
53.25 -25.281631 16.9515
53.099998 -25.281631 16.9223
52.950001 -25.281631 16.9223
52.799999 -25.281631 16.9296
52.650002 -25.281631 16.9223
52.5 -25.281631 16.915001
52.349998 -25.281631 16.893101
52.200001 -25.281631 16.871201
52.049999 -25.281631 16.841999
51.900002 -25.281631 16.798201
51.75 -25.281631 16.798201
51.599998 -25.281631 16.812799
51.450001 -25.281631 16.790899
51.299999 -25.281631 16.790899
51.150002 -25.281631 16.798201
51 -25.281631 16.768999
50.849998 -25.281631 16.674101
50.700001 -25.281631 16.6814
50.549999 -25.281631 16.7033
50.400002 -25.281631 16.725201
50.25 -25.281631 16.7033
50.099998 -25.281631 16.6668
49.950001 -25.281631 16.644899
49.799999 -25.281631 16.6595
49.650002 -25.281631 16.6376
49.5 -25.281631 16.644899
49.349998 -25.281631 16.695999
49.200001 -25.281631 16.6376
49.049999 -25.281631 16.5865
48.900002 -25.281631 16.549999
48.75 -25.281631 16.5208
48.599998 -25.281631 16.5427
48.450001 -25.281631 16.5208
48.299999 -25.281631 16.4697
48.150002 -25.281631 16.484301
48 -25.281631 16.5135
47.849998 -25.281631 16.5354
47.700001 -25.281631 16.5354
47.549999 -25.281631 16.455099
47.400002 -25.281631 16.4405
47.25 -25.281631 16.4697
47.099998 -25.281631 16.433201
46.950001 -25.281631 16.433201
46.799999 -25.281631 16.455099
46.650002 -25.281631 16.4916
46.5 -25.281631 16.4624
46.349998 -25.281631 16.455099
46.200001 -25.281631 16.4697
46.049999 -25.281631 16.4186
45.900002 -25.281631 16.3967
45.75 -25.281631 16.3748
45.599998 -25.281631 16.360201
45.450001 -25.281631 16.360201
45.299999 -25.281631 16.338301
45.150002 -25.281631 16.316401
45 -25.281631 16.3018
44.849998 -25.281631 16.287201
44.700001 -25.281631 16.257999
44.549999 -25.281631 16.214199
44.400002 -25.281631 16.2726
44.25 -25.281631 16.2945
44.099998 -25.281631 16.265301
43.950001 -25.281631 16.214199
43.799999 -25.281631 16.192301
43.650002 -25.281631 16.184999
43.5 -25.281631 16.2069
43.349998 -25.281631 16.112
43.200001 -25.281631 16.097401
43.049999 -25.281631 16.1047
42.900002 -25.281631 16.068199
42.75 -25.281631 16.1047
42.599998 -25.281631 16.119301
42.450001 -25.281631 16.0755
42.299999 -25.281631 16.119301
42.150002 -25.281631 16.112
42 -25.281631 16.0828
41.849998 -25.281631 16.119301
41.700001 -25.281631 16.1047
41.549999 -25.281631 16.0609
41.400002 -25.281631 16.017099
41.25 -25.281631 16.0755
41.099998 -25.281631 16.097401
40.950001 -25.281631 16.0755
40.799999 -25.281631 16.0755
40.650002 -25.281631 16.0828
40.5 -25.281631 16.0828
40.349998 -25.281631 16.024401
40.200001 -25.281631 16.017099
40.049999 -25.281631 16.024401
39.900002 -25.281631 16.039
39.75 -25.281631 15.9806
39.599998 -25.281631 15.9514
39.450001 -25.281631 15.9222
39.299999 -25.281631 15.9003
39.150002 -25.281631 15.9003
39 -25.281631 15.9076
38.849998 -25.281631 15.9149
38.700001 -25.281631 15.9441
38.549999 -25.281631 15.9514
38.400002 -25.281631 15.9368
38.25 -25.281631 15.9149
38.099998 -25.281631 15.9149
37.950001 -25.281631 15.9295
37.799999 -25.281631 15.966
37.650002 -25.281631 15.9514
37.5 -25.281631 15.9368
37.349998 -25.281631 15.9295
37.200001 -25.281631 15.8784
37.049999 -25.281631 15.8638
36.900002 -25.281631 15.8638
36.75 -25.281631 15.8565
36.599998 -25.281631 15.8711
36.450001 -25.281631 15.8492
36.299999 -25.281631 15.8127
36.150002 -25.281631 15.7981
36 -25.281631 15.7981
35.849998 -25.281631 15.8127
35.700001 -25.281631 15.8273
35.549999 -25.281631 15.7981
35.400002 -25.281631 15.7835
35.25 -25.281631 15.7908
35.099998 -25.281631 15.7908
34.950001 -25.281631 15.7908
34.799999 -25.281631 15.7835
34.650002 -25.281631 15.7178
34.5 -25.281631 15.7105
34.349998 -25.281631 15.7251
34.200001 -25.281631 15.7543
34.049999 -25.281631 15.7397
33.900002 -25.281631 15.7105
33.75 -25.281631 15.6886
33.599998 -25.281631 15.6667
33.450001 -25.281631 15.6375
33.299999 -25.281631 15.6302
33.150002 -25.281631 15.6521
33 -25.281631 15.6521
32.849998 -25.281631 15.6448
32.700001 -25.281631 15.6302
32.549999 -25.281631 15.5864
32.400002 -25.281631 15.6448
32.25 -25.281631 15.6521
32.099998 -25.281631 15.6156
31.950001 -25.281631 15.5645
31.799999 -25.281631 15.5791
31.65 -25.281631 15.601
31.5 -25.281631 15.5864
31.35 -25.281631 15.5864
31.200001 -25.281631 15.5645
31.049999 -25.281631 15.5353
30.9 -25.281631 15.5645
30.75 -25.281631 15.5645
30.6 -25.281631 15.5645
30.450001 -25.281631 15.5937
30.299999 -25.281631 15.5426
30.15 -25.281631 15.5207
30 -25.281631 15.5207
29.85 -25.281631 15.4842
29.700001 -25.281631 15.4988
29.549999 -25.281631 15.5207
29.4 -25.281631 15.5207
29.25 -25.281631 15.5061
29.1 -25.281631 15.5061
28.950001 -25.281631 15.5353
28.799999 -25.281631 15.4842
28.65 -25.281631 15.5134
28.5 -25.281631 15.5499
28.35 -25.281631 15.5061
28.200001 -25.281631 15.5207
28.049999 -25.281631 15.4988
27.9 -25.281631 15.4112
27.75 -25.281631 15.4477
27.6 -25.281631 15.4842
27.450001 -25.281631 15.4988
27.299999 -25.281631 15.4331
27.15 -25.281631 15.4404
27 -25.281631 15.4331
26.85 -25.281631 15.3601
26.700001 -25.281631 15.3966
26.549999 -25.281631 15.4039
26.4 -25.281631 15.382
26.25 -25.281631 15.4039
26.1 -25.281631 15.3966
25.950001 -25.281631 15.382
25.799999 -25.281631 15.3966
25.65 -25.281631 15.3747
25.5 -25.281631 15.3528
25.35 -25.281631 15.3236
25.200001 -25.281631 15.3601
25.049999 -25.281631 15.3893
24.9 -25.281631 15.3966
24.75 -25.281631 15.3528
24.6 -25.281631 15.3382
24.450001 -25.281631 15.3382
24.299999 -25.281631 15.3528
24.15 -25.281631 15.3382
24 -25.281631 15.3455
23.85 -25.281631 15.382
23.700001 -25.281631 15.3528
23.549999 -25.281631 15.3601
23.4 -25.281631 15.3747
23.25 -25.281631 15.3455
23.1 -25.281631 15.3528
22.950001 -25.281631 15.3601
22.799999 -25.281631 15.3382
22.65 -25.281631 15.3528
22.5 -25.281631 15.3236
22.35 -25.281631 15.2944
22.200001 -25.281631 15.3236
22.049999 -25.281631 15.3236
21.9 -25.281631 15.309
21.75 -25.281631 15.2944
21.6 -25.281631 15.2944
21.450001 -25.281631 15.2944
21.299999 -25.281631 15.2652
21.15 -25.281631 15.2287
21 -25.281631 15.2214
20.85 -25.281631 15.2287
20.700001 -25.281631 15.2579
20.549999 -25.281631 15.2287
20.4 -25.281631 15.2068
20.25 -25.281631 15.2214
20.1 -25.281631 15.2287
19.950001 -25.281631 15.236
19.799999 -25.281631 15.2433
19.65 -25.281631 15.236
19.5 -25.281631 15.2652
19.35 -25.281631 15.2579
19.200001 -25.281631 15.1922
19.049999 -25.281631 15.1849
18.9 -25.281631 15.1776
18.75 -25.281631 15.1776
18.6 -25.281631 15.1849
18.450001 -25.281631 15.1849
18.299999 -25.281631 15.1849
18.15 -25.281631 15.2214
18 -25.281631 15.2068
17.85 -25.281631 15.1776
17.700001 -25.281631 15.1557
17.549999 -25.281631 15.1557
17.4 -25.281631 15.163
17.25 -25.281631 15.1703
17.1 -25.281631 15.1922
16.950001 -25.281631 15.1703
16.799999 -25.281631 15.1557
16.65 -25.281631 15.1411
16.5 -25.281631 15.1411
16.35 -25.281631 15.1703
16.200001 -25.281631 15.1995
16.049999 -25.281631 15.1557
15.9 -25.281631 15.1703
15.75 -25.281631 15.1849
15.6 -25.281631 15.1484
15.45 -25.281631 15.1338
15.3 -25.281631 15.1338
15.15 -25.281631 15.1557
15 -25.281631 15.1557
14.85 -25.281631 15.1484
14.7 -25.281631 15.1703
14.55 -25.281631 15.2141
14.4 -25.281631 15.1338
14.25 -25.281631 15.0827
14.1 -25.281631 15.1119
13.95 -25.281631 15.1192
13.8 -25.281631 15.1119
13.65 -25.281631 15.09
13.5 -25.281631 15.1411
13.35 -25.281631 15.1557
13.2 -25.281631 15.1703
13.05 -25.281631 15.2068
12.9 -25.281631 15.1849
12.75 -25.281631 15.1484
12.6 -25.281631 15.0973
12.45 -25.281631 15.0827
12.3 -25.281631 15.0973
12.15 -25.281631 15.1046
12 -25.281631 15.0389
11.85 -25.281631 15.0827
11.7 -25.281631 15.1192
11.55 -25.281631 15.1265
11.4 -25.281631 15.1484
11.25 -25.281631 15.1703
11.1 -25.281631 15.1849
10.95 -25.281631 15.1338
10.8 -25.281631 15.0535
10.65 -25.281631 15.0389
10.5 -25.281631 15.1046
10.35 -25.281631 15.1046
10.2 -25.281631 15.0608
10.05 -25.281631 15.0097
9.8999996 -25.281631 15.0973
9.75 -25.281631 15.1046
9.6000004 -25.281631 15.0827
9.4499998 -25.281631 15.1192
9.3000002 -25.281631 15.1484
9.1499996 -25.281631 15.163
9 -25.281631 15.1703
8.8500004 -25.281631 15.1338
8.6999998 -25.281631 15.1046
8.5500002 -25.281631 15.09
8.3999996 -25.281631 15.0608
8.25 -25.281631 15.1046
8.1000004 -25.281631 15.1411
7.9499998 -25.281631 15.1192
7.8000002 -25.281631 15.1411
7.6500001 -25.281631 15.163
7.5 -25.281631 15.1776
7.3499999 -25.281631 15.1411
7.1999998 -25.281631 15.1411
7.0500002 -25.281631 15.163
6.9000001 -25.281631 15.1703
6.75 -25.281631 15.163
6.5999999 -25.281631 15.1484
6.4499998 -25.281631 15.163
6.3000002 -25.281631 15.163
6.1500001 -25.281631 15.1557
6 -25.281631 15.1411
5.8499999 -25.281631 15.1484
5.6999998 -25.281631 15.1484
5.5500002 -25.281631 15.1338
5.4000001 -25.281631 15.1119
5.25 -25.281631 15.1338
5.0999999 -25.281631 15.1703
4.9499998 -25.281631 15.2141
4.8000002 -25.281631 15.1995
4.6500001 -25.281631 15.1776
4.5 -25.281631 15.1484
4.3499999 -25.281631 15.1265
4.1999998 -25.281631 15.09
4.0500002 -25.281631 15.0681
3.9000001 -25.281631 15.0754
3.75 -25.281631 15.0973
3.5999999 -25.281631 15.1046
3.45 -25.281631 15.0827
3.3 -25.281631 15.0535
3.1500001 -25.281631 15.0973
3 -25.281631 15.1411
2.8499999 -25.281631 15.1046
2.7 -25.281631 15.0973
2.55 -25.281631 15.1192
2.4000001 -25.281631 15.163
2.25 -25.281631 15.1922
2.0999999 -25.281631 15.1703
1.95 -25.281631 15.1411
1.8 -25.281631 15.1922
1.65 -25.281631 15.1922
1.5 -25.281631 15.1776
1.35 -25.281631 15.1557
1.2 -25.281631 15.1265
1.05 -25.281631 15.1192
0.89999998 -25.281631 15.1411
0.75 -25.281631 15.1557
0.60000002 -25.281631 15.1776
0.44999999 -25.281631 15.1849
0.30000001 -25.281631 15.1338
0.15000001 -25.281631 15.1776
7.1054274e-15 -25.281631 15.2214
-0.15000001 -25.281631 15.2579
-0.30000001 -25.281631 15.1703
-0.44999999 -25.281631 15.1776
-0.60000002 -25.281631 15.2287
-0.75 -25.281631 15.2068
-0.89999998 -25.281631 15.1703
-1.05 -25.281631 15.1484
-1.2 -25.281631 15.1338
-1.35 -25.281631 15.2214
-1.5 -25.281631 15.1776
-1.65 -25.281631 15.0754
-1.8 -25.281631 15.1922
-1.95 -25.281631 15.163
-2.0999999 -25.281631 15.1119
-2.25 -25.281631 15.1338
-2.4000001 -25.281631 15.1484
-2.55 -25.281631 15.1557
-2.7 -25.281631 15.1484
-2.8499999 -25.281631 15.2214
-3 -25.281631 15.236
-3.1500001 -25.281631 15.2068
-3.3 -25.281631 15.236
-3.45 -25.281631 15.236
-3.5999999 -25.281631 15.2214
-3.75 -25.281631 15.2214
-3.9000001 -25.281631 15.2141
-4.0500002 -25.281631 15.2068
-4.1999998 -25.281631 15.1922
-4.3499999 -25.281631 15.1703
-4.5 -25.281631 15.1922
-4.6500001 -25.281631 15.2214
-4.8000002 -25.281631 15.1922
-4.9499998 -25.281631 15.2141
-5.0999999 -25.281631 15.236
-5.25 -25.281631 15.236
-5.4000001 -25.281631 15.1995
-5.5500002 -25.281631 15.1849
-5.6999998 -25.281631 15.1995
-5.8499999 -25.281631 15.1995
-6 -25.281631 15.2141
-6.1500001 -25.281631 15.2214
-6.3000002 -25.281631 15.1776
-6.4499998 -25.281631 15.1922
-6.5999999 -25.281631 15.236
-6.75 -25.281631 15.2871
-6.9000001 -25.281631 15.2652
-7.0500002 -25.281631 15.2506
-7.1999998 -25.281631 15.236
-7.3499999 -25.281631 15.236
-7.5 -25.281631 15.3017
-7.6500001 -25.281631 15.2944
-7.8000002 -25.281631 15.2141
-7.9499998 -25.281631 15.3236
-8.1000004 -25.281631 15.3382
-8.25 -25.281631 15.3163
-8.3999996 -25.281631 15.3893
-8.5500002 -25.281631 15.3674
-8.6999998 -25.281631 15.3382
-8.8500004 -25.281631 15.3893
-9 -25.281631 15.3455
-9.1499996 -25.281631 15.3309
-9.3000002 -25.281631 15.3528
-9.4499998 -25.281631 15.3455
-9.6000004 -25.281631 15.382
-9.75 -25.281631 15.4258
-9.8999996 -25.281631 15.4039
-10.05 -25.281631 15.3747
-10.2 -25.281631 15.3674
-10.35 -25.281631 15.3893
-10.5 -25.281631 15.3674
-10.65 -25.281631 15.3528
-10.8 -25.281631 15.3455
-10.95 -25.281631 15.3893
-11.1 -25.281631 15.3966
-11.25 -25.281631 15.3893
-11.4 -25.281631 15.3674
-11.55 -25.281631 15.3528
-11.7 -25.281631 15.3455
-11.85 -25.281631 15.3455
-12 -25.281631 15.3893
-12.15 -25.281631 15.4112
-12.3 -25.281631 15.4185
-12.45 -25.281631 15.3893
-12.6 -25.281631 15.3893
-12.75 -25.281631 15.4112
-12.9 -25.281631 15.455
-13.05 -25.281631 15.4404
-13.2 -25.281631 15.4185
-13.35 -25.281631 15.3966
-13.5 -25.281631 15.4185
-13.65 -25.281631 15.4404
-13.8 -25.281631 15.4477
-13.95 -25.281631 15.4185
-14.1 -25.281631 15.4258
-14.25 -25.281631 15.4404
-14.4 -25.281631 15.455
-14.55 -25.281631 15.5134
-14.7 -25.281631 15.455
-14.85 -25.281631 15.3893
-15 -25.281631 15.4477
-15.15 -25.281631 15.4623
-15.3 -25.281631 15.4623
-15.45 -25.281631 15.4696
-15.6 -25.281631 15.4988
-15.75 -25.281631 15.5134
-15.9 -25.281631 15.5207
-16.049999 -25.281631 15.4842
-16.200001 -25.281631 15.455
-16.35 -25.281631 15.4623
-16.5 -25.281631 15.5426
-16.65 -25.281631 15.5207
-16.799999 -25.281631 15.5061
-16.950001 -25.281631 15.5134
-17.1 -25.281631 15.4696
-17.25 -25.281631 15.4623
-17.4 -25.281631 15.4988
-17.549999 -25.281631 15.601
-17.700001 -25.281631 15.5572
-17.85 -25.281631 15.5353
-18 -25.281631 15.5791
-18.15 -25.281631 15.6302
-18.299999 -25.281631 15.601
-18.450001 -25.281631 15.5426
-18.6 -25.281631 15.5718
-18.75 -25.281631 15.5864
-18.9 -25.281631 15.5791
-19.049999 -25.281631 15.5572
-19.200001 -25.281631 15.5864
-19.35 -25.281631 15.5937
-19.5 -25.281631 15.5791
-19.65 -25.281631 15.6229
-19.799999 -25.281631 15.6083
-19.950001 -25.281631 15.5791
-20.1 -25.281631 15.5791
-20.25 -25.281631 15.6521
-20.4 -25.281631 15.6959
-20.549999 -25.281631 15.6813
-20.700001 -25.281631 15.6521
-20.85 -25.281631 15.6083
-21 -25.281631 15.5937
-21.15 -25.281631 15.7032
-21.299999 -25.281631 15.6959
-21.450001 -25.281631 15.6594
-21.6 -25.281631 15.6083
-21.75 -25.281631 15.6521
-21.9 -25.281631 15.6667
-22.049999 -25.281631 15.6521
-22.200001 -25.281631 15.6813
-22.35 -25.281631 15.7397
-22.5 -25.281631 15.7835
-22.65 -25.281631 15.7616
-22.799999 -25.281631 15.8273
-22.950001 -25.281631 15.8711
-23.1 -25.281631 15.8711
-23.25 -25.281631 15.82
-23.4 -25.281631 15.8127
-23.549999 -25.281631 15.8419
-23.700001 -25.281631 15.8711
-23.85 -25.281631 15.8638
-24 -25.281631 15.8492
-24.15 -25.281631 15.8346
-24.299999 -25.281631 15.8346
-24.450001 -25.281631 15.8346
-24.6 -25.281631 15.8346
-24.75 -25.281631 15.8638
-24.9 -25.281631 15.8638
-25.049999 -25.281631 15.8565
-25.200001 -25.281631 15.8857
-25.35 -25.281631 15.9076
-25.5 -25.281631 15.9149
-25.65 -25.281631 15.9076
-25.799999 -25.281631 15.9222
-25.950001 -25.281631 15.9076
-26.1 -25.281631 15.8857
-26.25 -25.281631 15.9076
-26.4 -25.281631 15.9076
-26.549999 -25.281631 15.9222
-26.700001 -25.281631 15.9952
-26.85 -25.281631 15.9003
-27 -25.281631 15.8711
-27.15 -25.281631 15.893
-27.299999 -25.281631 15.9222
-27.450001 -25.281631 15.9806
-27.6 -25.281631 16.017099
-27.75 -25.281631 15.9952
-27.9 -25.281631 15.9879
-28.049999 -25.281631 15.9806
-28.200001 -25.281631 15.9733
-28.35 -25.281631 15.9733
-28.5 -25.281631 16.0098
-28.65 -25.281631 16.0536
-28.799999 -25.281631 16.039
-28.950001 -25.281631 16.024401
-29.1 -25.281631 16.0317
-29.25 -25.281631 16.0755
-29.4 -25.281631 16.0755
-29.549999 -25.281631 16.0536
-29.700001 -25.281631 16.024401
-29.85 -25.281631 16.0609
-30 -25.281631 16.090099
-30.15 -25.281631 16.1047
-30.299999 -25.281631 16.0828
-30.450001 -25.281631 16.097401
-30.6 -25.281631 16.1047
-30.75 -25.281631 16.119301
-30.9 -25.281631 16.1485
-31.049999 -25.281631 16.1339
-31.200001 -25.281631 16.112
-31.35 -25.281631 16.1266
-31.5 -25.281631 16.1339
-31.65 -25.281631 16.163099
-31.799999 -25.281631 16.2288
-31.950001 -25.281631 16.192301
-32.099998 -25.281631 16.184999
-32.25 -25.281631 16.2069
-32.400002 -25.281631 16.257999
-32.549999 -25.281631 16.243401
-32.700001 -25.281631 16.2288
-32.849998 -25.281631 16.243401
-33 -25.281631 16.236099
-33.150002 -25.281631 16.184999
-33.299999 -25.281631 16.119301
-33.450001 -25.281631 16.1266
-33.599998 -25.281631 16.163099
-33.75 -25.281631 16.2215
-33.900002 -25.281631 16.3237
-34.049999 -25.281631 16.2726
-34.200001 -25.281631 16.265301
-34.349998 -25.281631 16.309099
-34.5 -25.281631 16.3237
-34.650002 -25.281631 16.330999
-34.799999 -25.281631 16.330999
-34.950001 -25.281631 16.330999
-35.099998 -25.281631 16.3456
-35.25 -25.281631 16.360201
-35.400002 -25.281631 16.3456
-35.549999 -25.281631 16.3456
-35.700001 -25.281631 16.330999
-35.849998 -25.281631 16.316401
-36 -25.281631 16.338301
-36.150002 -25.281631 16.3675
-36.299999 -25.281631 16.3894
-36.450001 -25.281631 16.411301
-36.599998 -25.281631 16.411301
-36.75 -25.281631 16.411301
-36.900002 -25.281631 16.411301
-37.049999 -25.281631 16.4916
-37.200001 -25.281631 16.4624
-37.349998 -25.281631 16.4259
-37.5 -25.281631 16.4186
-37.650002 -25.281631 16.4186
-37.799999 -25.281631 16.4259
-37.950001 -25.281631 16.433201
-38.099998 -25.281631 16.4624
-38.25 -25.281631 16.4697
-38.400002 -25.281631 16.498899
-38.549999 -25.281631 16.571899
-38.700001 -25.281631 16.5646
-38.849998 -25.281631 16.571899
-39 -25.281631 16.601101
-39.150002 -25.281631 16.557301
-39.299999 -25.281631 16.5427
-39.450001 -25.281631 16.549999
-39.599998 -25.281631 16.506201
-39.75 -25.281631 16.5135
-39.900002 -25.281631 16.5354
-40.049999 -25.281631 16.557301
-40.200001 -25.281631 16.6157
-40.349998 -25.281631 16.630301
-40.5 -25.281631 16.6084
-40.650002 -25.281631 16.5865
-40.799999 -25.281631 16.579201
-40.950001 -25.281631 16.6084
-41.099998 -25.281631 16.6668
-41.25 -25.281631 16.5938
-41.400002 -25.281631 16.5646
-41.549999 -25.281631 16.5938
-41.700001 -25.281631 16.5646
-41.849998 -25.281631 16.6157
-42 -25.281631 16.674101
-42.150002 -25.281631 16.674101
-42.299999 -25.281631 16.644899
-42.450001 -25.281631 16.644899
-42.599998 -25.281631 16.6887
-42.75 -25.281631 16.7106
-42.900002 -25.281631 16.739799
-43.049999 -25.281631 16.7617
-43.200001 -25.281631 16.768999
-43.349998 -25.281631 16.7763
-43.5 -25.281631 16.790899
-43.650002 -25.281631 16.820101
-43.799999 -25.281631 16.8055
-43.950001 -25.281631 16.798201
-44.099998 -25.281631 16.812799
-44.25 -25.281631 16.871201
-44.400002 -25.281631 16.8566
-44.549999 -25.281631 16.8274
-44.700001 -25.281631 16.841999
-44.849998 -25.281631 16.8785
-45 -25.281631 16.915001
-45.150002 -25.281631 16.9515
-45.299999 -25.281631 16.9223
-45.450001 -25.281631 16.9077
-45.599998 -25.281631 16.915001
-45.75 -25.281631 16.9515
-45.900002 -25.281631 16.9515
-46.049999 -25.281631 16.9223
-46.200001 -25.281631 16.8785
-46.349998 -25.281631 16.944201
-46.5 -25.281631 16.9807
-46.650002 -25.281631 16.9953
-46.799999 -25.281631 17.0245
-46.950001 -25.281631 17.0245
-47.099998 -25.281631 17.009899
-47.25 -25.281631 17.009899
-47.400002 -25.281631 17.0026
-47.549999 -25.281631 16.988001
-47.700001 -25.281631 16.9734
-47.849998 -25.281631 16.9953
-48 -25.281631 17.009899
-48.150002 -25.281631 17.0172
-48.299999 -25.281631 17.039101
-48.450001 -25.281631 17.061001
-48.599998 -25.281631 17.0756
-48.75 -25.281631 17.061001
-48.900002 -25.281631 17.0756
-49.049999 -25.281631 17.0902
-49.200001 -25.281631 17.0902
-49.349998 -25.281631 17.0683
-49.5 -25.281631 17.0902
-49.650002 -25.281631 17.126699
-49.799999 -25.281631 17.155899
-49.950001 -25.281631 17.250799
-50.099998 -25.281631 17.258101
-50.25 -25.281631 17.1924
-50.400002 -25.281631 17.199699
-50.549999 -25.281631 17.207001
-50.700001 -25.281631 17.2216
-50.849998 -25.281631 17.250799
-51 -25.281631 17.280001
-51.150002 -25.281631 17.280001
-51.299999 -25.281631 17.2362
-51.450001 -25.281631 17.280001
-51.599998 -25.281631 17.280001
-51.75 -25.281631 17.2654
-51.900002 -25.281631 17.2946
-52.049999 -25.281631 17.3311
-52.200001 -25.281631 17.323799
-52.349998 -25.281631 17.250799
-52.5 -25.281631 17.3384
-52.650002 -25.281631 17.4041
-52.799999 -25.281631 17.418699
-52.950001 -25.281631 17.3165
-53.099998 -25.281631 17.3384
-53.25 -25.281631 17.396799
-53.400002 -25.281631 17.4625
-53.549999 -25.281631 17.447901
-53.700001 -25.281631 17.4625
-53.849998 -25.281631 17.499001
-54 -25.281631 17.4771
-54.150002 -25.281631 17.469801
-54.299999 -25.281631 17.4844
-54.450001 -25.281631 17.5282
-54.599998 -25.281631 17.5282
-54.75 -25.281631 17.542801
-54.900002 -25.281631 17.5793
-55.049999 -25.281631 17.5793
-55.200001 -25.281631 17.5574
-55.349998 -25.281631 17.542801
-55.5 -25.281631 17.5793
-55.650002 -25.281631 17.615801
-55.799999 -25.281631 17.637699
-55.950001 -25.281631 17.637699
-56.099998 -25.281631 17.6012
-56.25 -25.281631 17.6304
-56.400002 -25.281631 17.645
-56.549999 -25.281631 17.6012
-56.700001 -25.281631 17.6231
-56.849998 -25.281631 17.6231
-57 -25.281631 17.586599
-57.150002 -25.281631 17.6304
-57.299999 -25.281631 17.659599
-57.450001 -25.281631 17.6742
-57.599998 -25.281631 17.6523
-57.75 -25.281631 17.666901
-57.900002 -25.281631 17.7034
-58.049999 -25.281631 17.739901
-58.200001 -25.281631 17.739901
-58.349998 -25.281631 17.710699
-58.5 -25.281631 17.6961
-58.650002 -25.281631 17.718
-58.799999 -25.281631 17.7253
-58.950001 -25.281631 17.732599
-59.099998 -25.281631 17.732599
-59.25 -25.281631 17.7472
-59.400002 -25.281631 17.7691
-59.549999 -25.281631 17.791
58.5 -24.345291 17.440599
58.349998 -24.345291 17.396799
58.200001 -24.345291 17.374901
58.049999 -24.345291 17.396799
57.900002 -24.345291 17.4625
57.75 -24.345291 17.4333
57.599998 -24.345291 17.440599
57.450001 -24.345291 17.491699
57.299999 -24.345291 17.4552
57.150002 -24.345291 17.440599
57 -24.345291 17.440599
56.849998 -24.345291 17.418699
56.700001 -24.345291 17.2946
56.549999 -24.345291 17.272699
56.400002 -24.345291 17.2946
56.25 -24.345291 17.2946
56.099998 -24.345291 17.280001
55.950001 -24.345291 17.2654
55.799999 -24.345291 17.250799
55.650002 -24.345291 17.2216
55.5 -24.345291 17.2143
55.349998 -24.345291 17.2143
55.200001 -24.345291 17.228901
55.049999 -24.345291 17.228901
54.900002 -24.345291 17.2216
54.75 -24.345291 17.207001
54.599998 -24.345291 17.1705
54.450001 -24.345291 17.1194
54.299999 -24.345291 17.082899
54.150002 -24.345291 17.0683
54 -24.345291 17.082899
53.849998 -24.345291 17.0756
53.700001 -24.345291 17.039101
53.549999 -24.345291 17.009899
53.400002 -24.345291 17.009899
53.25 -24.345291 17.031799
53.099998 -24.345291 17.0756
52.950001 -24.345291 17.0172
52.799999 -24.345291 16.9807
52.650002 -24.345291 16.936899
52.5 -24.345291 16.8566
52.349998 -24.345291 16.8566
52.200001 -24.345291 16.8493
52.049999 -24.345291 16.8274
51.900002 -24.345291 16.8055
51.75 -24.345291 16.798201
51.599998 -24.345291 16.7836
51.450001 -24.345291 16.7544
51.299999 -24.345291 16.725201
51.150002 -24.345291 16.7106
51 -24.345291 16.7106
50.849998 -24.345291 16.739799
50.700001 -24.345291 16.725201
50.549999 -24.345291 16.7106
50.400002 -24.345291 16.717899
50.25 -24.345291 16.7033
50.099998 -24.345291 16.6887
49.950001 -24.345291 16.6814
49.799999 -24.345291 16.6814
49.650002 -24.345291 16.652201
49.5 -24.345291 16.6376
49.349998 -24.345291 16.622999
49.200001 -24.345291 16.5938
49.049999 -24.345291 16.5938
48.900002 -24.345291 16.6084
48.75 -24.345291 16.6084
48.599998 -24.345291 16.557301
48.450001 -24.345291 16.528099
48.299999 -24.345291 16.528099
48.150002 -24.345291 16.557301
48 -24.345291 16.5646
47.849998 -24.345291 16.557301
47.700001 -24.345291 16.557301
47.549999 -24.345291 16.5208
47.400002 -24.345291 16.476999
47.25 -24.345291 16.4405
47.099998 -24.345291 16.498899
46.950001 -24.345291 16.4916
46.799999 -24.345291 16.476999
46.650002 -24.345291 16.5135
46.5 -24.345291 16.4624
46.349998 -24.345291 16.4259
46.200001 -24.345291 16.411301
46.049999 -24.345291 16.4186
45.900002 -24.345291 16.382099
45.75 -24.345291 16.330999
45.599998 -24.345291 16.3018
45.450001 -24.345291 16.382099
45.299999 -24.345291 16.360201
45.150002 -24.345291 16.3018
45 -24.345291 16.3018
44.849998 -24.345291 16.265301
44.700001 -24.345291 16.243401
44.549999 -24.345291 16.2726
44.400002 -24.345291 16.236099
44.25 -24.345291 16.214199
