# .PCD v0.7 - Point Cloud Data file format
VERSION 0.7
FIELDS x y z
SIZE 4 4 4
TYPE F F F
COUNT 1 1 1
WIDTH 2108
HEIGHT 1
VIEWPOINT 0 0 0 1 0 0 0
POINTS 2108
DATA ascii
-48.525002 -94 75.9282
-0.375 -94 89.0755
28.575001 -94 93.273003
37.424999 -94 93.7183
60.525002 -94 92.353203
-51.974998 -93 78.872688
-4.125 -93 90.100845
26.475 -93 93.48246
36.674999 -93 93.9002
63.825001 -93 92.574455
-47.474998 -93 76.205597
-0.82499999 -93 89.009804
28.575001 -93 93.236504
60.825001 -93 92.4627
-81.525002 -92 62.137299
-51.375 -92 79.203224
-4.4250002 -92 90.055962
25.875 -92 93.463531
36.674999 -92 93.960159
63.974998 -92 92.707993
-79.125 -92 61.722401
-46.724998 -92 76.483002
-1.425 -92 88.944099
28.125 -92 93.236504
60.224998 -92 92.5868
-80.474998 -91 62.952602
-50.775002 -91 79.516479
-4.7249999 -91 90.038513
25.275 -91 93.495567
36.674999 -91 94.036407
64.125 -91 92.807739
-78.525002 -91 62.459702
-46.575001 -91 76.731201
-1.875 -91 88.871101
27.674999 -91 93.2146
60.525002 -91 92.6744
-80.025002 -90 63.783253
-50.325001 -90 79.829483
-5.1750002 -90 89.9673
24.975 -90 93.517235
38.025002 -90 94.126862
64.275002 -90 92.899757
-77.925003 -90 63.175098
-45.674999 -90 77.0159
-1.875 -90 88.82
27.375 -90 93.178101
61.724998 -90 92.769302
-79.425003 -89 64.394745
-49.724998 -89 80.088524
-5.4749999 -89 89.95446
24.525 -89 93.517334
38.025002 -89 94.165543
64.275002 -89 92.908875
-95.925003 -89 63.355698
-78.974998 -89 64.92083
-49.125 -89 80.412399
-5.9250002 -89 89.90023
24.225 -89 93.537415
38.474998 -89 94.216324
-77.025002 -89 63.656898
-45.375 -89 77.307899
-2.175 -89 88.812698
27.225 -89 93.105103
63.825001 -89 92.250999
3.4028235e+38 -89 3.4028235e+38
-95.775002 -89 51.246899
-77.025002 -89 63.656898
-45.375 -89 77.307899
-2.175 -89 88.812698
27.225 -89 93.105103
-78.375 -88 65.47731
-48.525002 -88 80.753624
-6.375 -88 89.843925
23.924999 -88 93.577736
37.125 -88 94.275749
-75.974998 -88 64.635101
-44.025002 -88 77.796997
-3.675 -88 88.922203
26.625 -88 93.163498
-77.925003 -87 66.002548
-47.924999 -87 81.027687
-7.125 -87 89.782623
23.924999 -87 93.601357
38.775002 -87 94.316696
-75.224998 -87 65.080399
-43.275002 -87 78.0233
-3.9749999 -87 89.017097
26.325001 -87 93.141602
-77.324997 -86 66.52491
-47.325001 -86 81.337112
-7.875 -86 89.691086
23.174999 -86 93.608467
37.724998 -86 94.387215
-74.474998 -86 65.649803
-43.424999 -86 78.337196
-4.7249999 -86 89.060898
25.875 -86 93.112396
-76.724998 -85 67.054779
-46.875 -85 81.640182
-8.625 -85 89.599022
22.875 -85 93.630608
38.174999 -85 94.442863
66.675003 -85 92.731247
-73.724998 -85 66.1754
-42.525002 -85 78.599998
-6.0749998 -85 89.192299
25.875 -85 93.126999
64.574997 -85 92.250999
-76.275002 -84 67.564926
-46.275002 -84 81.930008
-9.0749998 -84 89.562424
22.575001 -84 93.658859
39.224998 -84 94.485458
64.875 -84 93.55722
-73.425003 -84 66.620697
-42.075001 -84 78.862801
-6.6750002 -84 89.403999
25.275 -84 93.061302
62.025002 -84 92.7547
-75.675003 -83 68.062073
-45.674999 -83 82.204666
-30.674999 -83 86.818367
22.125 -83 93.669556
38.625 -83 94.526688
65.025002 -83 93.640701
-72.675003 -83 67.080597
-40.875 -83 79.132896
-29.924999 -83 86.739502
25.275 -83 93.083199
59.625 -83 93.170799
-75.224998 -82 68.532806
-45.224998 -82 82.492882
21.825001 -82 93.682587
39.075001 -82 94.545082
65.025002 -82 93.740417
-72.375 -82 67.555099
-40.424999 -82 79.3592
24.525 -82 93.075897
58.724998 -82 93.418999
-74.625 -81 69.006783
-44.625 -81 82.778587
-30.375 -81 86.979401
21.674999 -81 93.687294
37.875 -81 94.569122
65.175003 -81 93.837433
-71.925003 -81 68.036903
-39.674999 -81 79.622002
-29.625 -81 86.863602
24.075001 -81 93.075897
60.525002 -81 93.608803
-74.025002 -80 69.52536
-44.025002 -80 83.047165
-30.375 -80 87.064346
21.075001 -80 93.703583
38.924999 -80 94.614708
65.324997 -80 93.941681
-71.175003 -80 68.467598
-39.075001 -80 79.855598
-29.775 -80 86.965797
24.375 -80 93.017502
62.025002 -80 93.703697
-73.425003 -79 69.986511
-43.424999 -79 83.321869
-30.375 -79 87.155174
20.924999 -79 93.732239
38.924999 -79 94.637993
65.324997 -79 94.008125
-70.425003 -79 68.890999
-38.625 -79 80.089203
-29.625 -79 87.038803
23.625 -79 93.075897
61.275002 -79 93.783997
-72.974998 -78 70.466415
-42.825001 -78 83.608322
-30.525 -78 87.279404
20.475 -78 93.763588
38.625 -78 94.682953
65.625 -78 94.110657
-69.974998 -78 69.372803
-37.875 -78 80.3666
-29.025 -78 87.177498
23.625 -78 93.024803
61.125 -78 93.857002
-72.375 -77 70.928627
-42.224998 -77 83.884575
-30.375 -77 87.398628
20.174999 -77 93.769997
39.974998 -77 94.688461
65.775002 -77 94.181534
-69.375 -77 69.759697
-37.575001 -77 80.585602
-29.625 -77 87.279701
23.174999 -77 93.097801
61.875 -77 93.915398
-71.775002 -76 71.404388
-41.625 -76 84.15255
-29.924999 -76 87.50853
19.875 -76 93.797394
38.775002 -76 94.733093
65.775002 -76 94.256813
-69.074997 -76 70.205002
-36.525002 -76 80.833801
-28.575001 -76 87.418404
23.025 -76 93.061302
63.525002 -76 94.002998
-71.324997 -75 71.88118
-41.025002 -75 84.423874
-29.325001 -75 87.602211
19.575001 -75 93.797607
40.424999 -75 94.751732
65.925003 -75 94.342354
-68.324997 -75 70.642998
-36.525002 -75 81.1185
-29.325001 -75 87.535202
23.025 -75 93.083199
61.875 -75 94.119797
-70.724998 -74 72.313499
-40.424999 -74 84.707108
-29.325001 -74 87.686295
19.125 -74 93.825989
38.775002 -74 94.785233
43.724998 -74 94.755424
65.925003 -74 94.388588
-97.425003 -74 65.075279
-70.125 -74 72.746048
-39.974998 -74 84.971855
18.975 -74 93.822067
38.025002 -74 94.766785
43.275002 -74 94.785591
66.074997 -74 94.47374
-67.574997 -74 71.044502
-35.625 -74 81.322899
-29.025 -74 87.586304
21.825001 -74 93.0467
41.775002 -74 94.674599
62.775002 -74 94.112503
3.4028235e+38 -74 3.4028235e+38
-97.275002 -74 51.7798
-67.574997 -74 71.044502
-35.625 -74 81.322899
21.825001 -74 93.0467
41.775002 -74 94.674599
62.775002 -74 94.112503
-69.525002 -73 73.199593
-39.375 -73 85.217148
18.674999 -73 93.827438
39.674999 -73 94.816467
44.025002 -73 94.830742
66.224998 -73 94.510162
-66.224998 -73 71.789101
-34.275002 -73 81.7901
21.975 -73 93.002899
40.875 -73 94.754898
62.775002 -73 94.258499
-88.125 -72 62.403206
-69.375 -72 73.506721
-38.775002 -72 85.46656
18.375 -72 93.847221
41.025002 -72 94.854523
44.474998 -72 94.863541
66.375 -72 94.562584
-86.925003 -72 61.664001
-65.625 -72 72.168701
-33.974998 -72 82.009102
21.525 -72 92.995598
41.025002 -72 94.784103
62.924999 -72 94.309601
-85.724998 -71 64.420723
-69.224998 -71 73.687561
-38.174999 -71 85.709221
17.924999 -71 93.859077
36.075001 -71 94.831848
43.424999 -71 94.886917
48.224998 -71 94.865791
66.525002 -71 94.618462
-84.074997 -71 63.649601
-65.025002 -71 72.555603
-33.075001 -71 82.220802
20.924999 -71 92.959099
39.375 -71 94.754898
46.275002 -71 94.784103
62.775002 -71 94.316902
-84.224998 -70 65.795227
-69.224998 -70 73.846512
-37.575001 -70 85.970383
17.775 -70 93.87162
34.424999 -70 94.844528
40.724998 -70 94.893539
44.775002 -70 94.919128
66.525002 -70 94.660126
-82.724998 -70 65.0439
-64.724998 -70 72.942497
-32.625 -70 82.447098
21.075001 -70 92.981003
38.625 -70 94.754898
41.625 -70 94.791397
62.924999 -70 94.375298
-82.875 -69 66.839661
-69.224998 -69 74.002403
-66.074997 -69 74.016563
-36.974998 -69 86.207596
17.475 -69 93.870033
43.575001 -69 94.948608
66.824997 -69 94.707283
-81.074997 -69 65.985603
-67.425003 -69 73.351303
-63.825001 -69 73.314796
-31.725 -69 82.688004
20.924999 -69 93.010201
63.375 -69 94.455597
-82.275002 -68 67.497612
-65.625 -68 74.569847
-36.375 -68 86.484978
17.174999 -68 93.868668
45.525002 -68 94.987709
66.974998 -68 94.719788
-80.025002 -68 66.759399
-63.075001 -68 73.694397
-31.725 -68 82.936203
21.075001 -68 93.010201
63.974998 -68 94.462898
-81.375 -67 67.99453
-65.625 -67 75.472092
-35.775002 -67 86.701378
16.875 -67 93.885818
35.025002 -67 94.888741
43.424999 -67 94.985992
48.075001 -67 95.000946
66.974998 -67 94.777412
-79.275002 -67 67.431
-62.625 -67 74.000999
-30.525 -67 83.125999
19.725 -67 92.9664
36.224998 -67 94.798698
44.174999 -67 94.915497
63.075001 -67 94.484802
-80.324997 -66 68.69825
-65.324997 -66 75.994247
-35.174999 -66 86.934074
16.575001 -66 93.908394
35.474998 -66 94.88192
39.825001 -66 94.95916
48.375 -66 95.041267
67.275002 -66 94.805481
-78.675003 -66 68.095299
-62.174999 -66 74.3806
-30.375 -66 83.323097
19.875 -66 92.959099
36.825001 -66 94.827904
39.825001 -66 94.8936
63.375 -66 94.499397
-65.025002 -65 76.427567
-34.575001 -65 87.171089
16.275 -65 93.916901
30.975 -65 94.859772
45.375 -65 95.045753
48.825001 -65 95.047058
67.275002 -65 94.846542
-61.424999 -65 74.709099
-29.625 -65 83.5494
19.424999 -65 92.959099
32.775002 -65 94.762199
47.174999 -65 94.966599
63.825001 -65 94.586998
-64.425003 -64 76.804276
-33.974998 -64 87.404724
15.975 -64 93.923431
31.575001 -64 94.887184
45.974998 -64 95.0812
67.574997 -64 94.868385
-60.974998 -64 75.0522
-29.174999 -64 83.709999
19.424999 -64 92.9226
32.325001 -64 94.842499
63.974998 -64 94.484802
-63.974998 -63 77.170303
-33.375 -63 87.612434
15.675 -63 93.952148
33.674999 -63 94.937294
46.424999 -63 95.105492
49.875 -63 95.090813
67.275002 -63 94.84166
79.875 -63 89.953629
-60.525002 -63 75.439102
-28.725 -63 83.958199
19.125 -63 92.915298
35.174999 -63 94.8498
47.924999 -63 95.0177
63.224998 -63 94.528603
77.925003 -63 89.462402
-68.925003 -62 75.079536
-63.375 -62 77.49688
-32.924999 -62 87.823471
15.375 -62 93.929214
34.424999 -62 94.956871
47.025002 -62 95.123825
50.174999 -62 95.108414
65.025002 -62 94.6688
80.775002 -62 89.410118
-67.425003 -62 74.2565
-59.775002 -62 75.687302
-28.125 -62 84.067703
18.674999 -62 92.937202
37.125 -62 94.908203
49.424999 -62 95.039597
64.724998 -62 94.586998
78.675003 -62 88.841904
-62.924999 -61 77.850456
-32.325001 -61 88.04023
15.075 -61 93.950897
30.525 -61 94.935463
47.174999 -61 95.162979
81.525002 -61 88.976227
-59.174999 -61 76.088799
-27.375 -61 84.330498
18.674999 -61 92.944504
32.924999 -61 94.878998
79.425003 -61 88.250603
-62.325001 -60 78.185654
-31.725 -60 88.248245
14.775 -60 93.957771
30.975 -60 94.959366
48.224998 -60 95.190796
71.775002 -60 93.65731
81.224998 -60 88.513
-58.724998 -60 76.315102
-26.625 -60 84.527603
18.375 -60 92.951797
32.625 -60 94.915497
70.125 -60 93.2146
80.175003 -60 88.0243
-61.875 -59 78.481003
-31.275 -59 88.454842
14.475 -59 93.980202
30.075001 -59 94.981285
48.525002 -59 95.208977
70.574997 -59 94.292488
-96.824997 -59 70.684647
-61.275002 -59 78.828468
-30.525 -59 88.640991
14.175 -59 93.980232
29.625 -59 94.984604
33.974998 -59 94.984489
47.924999 -59 95.255852
69.675003 -59 94.6539
-58.275002 -59 76.5998
-26.174999 -59 84.688202
17.775 -59 92.8423
31.875 -59 94.900902
68.175003 -59 93.667198
3.4028235e+38 -59 3.4028235e+38
-96.375 -59 54.867699
-58.275002 -59 76.5998
-26.174999 -59 84.688202
17.775 -59 92.8423
31.875 -59 94.900902
35.325001 -59 94.922798
68.175003 -59 93.667198
-60.825001 -58 79.137703
-30.075001 -58 88.814873
13.875 -58 93.989235
28.725 -58 94.986191
49.575001 -58 95.250008
68.775002 -58 94.95887
-57.375 -58 77.256798
-25.424999 -58 85.133499
17.025 -58 92.849602
31.125 -58 94.922798
66.224998 -58 94.324203
-69.224998 -57 75.878456
-60.224998 -57 79.44548
-29.475 -57 89.045601
13.575 -57 94.007439
27.975 -57 94.977608
30.525 -57 94.982849
47.775002 -57 95.27655
67.574997 -57 95.09623
-67.275002 -57 75.037598
-56.325001 -57 77.526901
-24.375 -57 85.374397
17.475 -57 92.871498
29.174999 -57 94.915497
32.174999 -57 94.886299
65.474998 -57 94.594299
-69.375 -56 75.968018
-59.775002 -56 79.775421
-28.725 -56 89.252014
13.275 -56 93.996323
28.275 -56 95.00441
46.125 -56 95.27858
49.125 -56 95.280708
68.775002 -56 95.050529
-67.275002 -56 75.161697
-55.875 -56 77.8116
-24.075001 -56 85.717499
16.875 -56 92.856903
32.474998 -56 94.952003
47.474998 -56 95.207497
65.474998 -56 94.6381
-69.224998 -55 76.093735
-59.174999 -55 80.06633
-27.975 -55 89.415031
12.975 -55 93.995514
26.475 -55 95.019188
30.375 -55 95.012444
46.424999 -55 95.320175
68.775002 -55 95.063171
-67.425003 -55 75.366096
-55.275002 -55 78.059799
-22.424999 -55 86.024101
16.575001 -55 92.864197
29.325001 -55 94.966599
32.325001 -55 94.944702
65.175003 -55 94.740303
-69.375 -54 76.231804
-58.724998 -54 80.377777
-27.375 -54 89.559074
12.825 -54 94.021812
27.075001 -54 95.043724
32.025002 -54 95.034744
35.775002 -54 95.07663
45.224998 -54 95.318146
49.275002 -54 95.335258
68.925003 -54 95.101265
-67.425003 -54 75.446404
-55.275002 -54 78.344498
-22.125 -54 86.549698
16.125 -54 92.820396
28.575001 -54 94.981201
33.825001 -54 94.981201
36.974998 -54 94.9739
47.775002 -54 95.251297
64.724998 -54 94.784103
-58.275002 -53 80.6521
-27.225 -53 89.617348
12.525 -53 93.997169
27.525 -53 95.050156
46.424999 -53 95.366104
48.674999 -53 95.36734
68.925003 -53 95.136322
-54.525002 -53 78.592697
-20.775 -53 87.111801
15.825 -53 92.7985
29.325001 -53 94.952003
47.775002 -53 95.295097
64.275002 -53 94.857101
-69.375 -52 76.438782
-57.674999 -52 80.954063
-27.225 -52 89.741463
-22.725 -52 89.810181
12.225 -52 94.027245
26.475 -52 95.066307
46.575001 -52 95.392784
50.174999 -52 95.383972
69.074997 -52 95.150826
-67.425003 -52 75.614304
-53.625 -52 78.855499
-24.225 -52 89.550003
-18.674999 -52 87.936699
15.375 -52 92.834999
29.325001 -52 94.988503
48.075001 -52 95.338898
65.775002 -52 94.820602
-57.224998 -51 81.231995
-26.924999 -51 89.817635
-19.725 -51 90.254387
11.775 -51 94.054306
25.575001 -51 95.080994
48.375 -51 95.411568
69.224998 -51 95.18779
-53.174999 -51 79.147499
-24.525 -51 89.593803
-17.325001 -51 89.243401
15.675 -51 92.783897
29.775 -51 95.0177
65.175003 -51 94.8936
-56.625 -50 81.526009
-26.775 -50 89.88517
11.475 -50 94.049141
25.125 -50 95.08297
28.125 -50 95.088669
47.474998 -50 95.43631
69.224998 -50 95.200684
-52.575001 -50 79.351898
-25.125 -50 89.6595
14.775 -50 92.791199
26.625 -50 94.995796
31.575001 -50 94.995796
61.875 -50 94.908203
-69.375 -49 76.802856
-56.025002 -49 81.79969
-26.625 -49 89.976379
11.325 -49 94.049339
24.825001 -49 95.113708
28.725 -49 95.102608
49.275002 -49 95.472496
69.375 -49 95.246239
-67.275002 -49 76.008499
-52.125 -49 79.607399
-24.674999 -49 89.790901
14.775 -49 92.747398
27.375 -49 95.0177
29.924999 -49 95.039597
65.775002 -49 94.900902
-69.375 -48 76.905182
-55.575001 -48 82.05101
-26.475 -48 90.055923
11.025 -48 94.065384
24.225 -48 95.102203
29.775 -48 95.086601
46.424999 -48 95.457726
69.375 -48 95.237976
-67.275002 -48 76.008499
-51.375 -48 79.8629
-24.375 -48 89.871201
14.475 -48 92.732803
28.275 -48 95.0177
30.825001 -48 95.039597
64.875 -48 94.966599
-55.125 -47 82.308517
-26.475 -47 90.129707
10.725 -47 94.074684
24.075001 -47 95.095146
26.775 -47 95.100388
47.325001 -47 95.483925
69.525002 -47 95.23967
-51.075001 -47 80.052696
-24.075001 -47 89.973396
13.875 -47 92.740097
25.275 -47 95.061501
28.424999 -47 94.981201
65.324997 -47 94.988503
-69.224998 -46 77.127678
-54.525002 -46 82.58699
-26.174999 -46 90.214493
10.425 -46 94.041916
24.525 -46 95.13398
47.174999 -46 95.496201
49.724998 -46 95.490578
69.675003 -46 95.27179
-67.574997 -46 76.264
-50.474998 -46 80.264397
-23.625 -46 90.046402
13.575 -46 92.703598
28.725 -46 95.039597
48.674999 -46 95.441101
65.474998 -46 94.922798
-69.074997 -45 77.229744
-54.075001 -45 82.856178
-26.025 -45 90.307915
10.125 -45 94.055344
23.775 -45 95.12825
28.424999 -45 95.130157
32.474998 -45 95.139328
47.025002 -45 95.535995
69.824997 -45 95.273842
-96.224998 -45 73.688362
-69.224998 -45 77.327568
-53.474998 -45 83.103928
-26.025 -45 90.392746
9.9750004 -45 94.060776
23.475 -45 95.148552
46.575001 -45 95.553085
69.824997 -45 95.280952
-67.425003 -45 76.358902
-50.025002 -45 80.527199
-24.375 -45 90.126701
13.575 -45 92.637901
26.025 -45 95.054199
29.325001 -45 95.046898
33.825001 -45 95.068802
65.775002 -45 94.995796
3.4028235e+38 -45 3.4028235e+38
-96.074997 -45 57.247501
-67.425003 -45 76.358902
-50.025002 -45 80.527199
-24.375 -45 90.126701
13.575 -45 92.637901
29.325001 -45 95.046898
65.775002 -45 94.995796
-69.224998 -44 77.436714
-53.025002 -44 83.321602
-25.875 -44 90.458305
9.6750002 -44 94.031898
24.075001 -44 95.166023
46.575001 -44 95.562057
70.125 -44 95.287773
-67.425003 -44 76.490303
-48.674999 -44 81.001701
-23.775 -44 90.309196
12.975 -44 92.652496
27.225 -44 95.068802
66.824997 -44 94.981201
-52.575001 -43 83.5513
-25.875 -43 90.5093
9.375 -43 94.025925
23.625 -43 95.175125
47.325001 -43 95.588303
70.125 -43 95.292931
-48.224998 -43 81.147697
-23.924999 -43 90.323799
12.825 -43 92.637901
30.225 -43 95.046898
65.474998 -43 95.032303
-51.974998 -42 83.776924
-25.575001 -42 90.560127
9.0749998 -42 94.004501
23.475 -42 95.168579
29.025 -42 95.159584
48.224998 -42 95.574554
70.275002 -42 95.244392
-47.174999 -42 81.381302
-24.975 -42 90.462502
12.675 -42 92.5868
25.575001 -42 95.039597
31.125 -42 95.112602
67.724998 -42 94.988503
-51.525002 -41 83.994415
-25.575001 -41 90.605446
8.625 -41 93.995247
24.075001 -41 95.139023
28.125 -41 95.121948
47.924999 -41 95.576988
70.425003 -41 95.226341
-47.325001 -41 81.541901
-23.924999 -41 90.469803
12.525 -41 92.572197
25.875 -41 95.039597
29.475 -41 95.061501
66.224998 -41 94.966599
-50.924999 -40 84.197968
-25.725 -40 90.687447
8.4750004 -40 93.946968
23.625 -40 95.138298
46.424999 -40 95.540199
49.424999 -40 95.543457
70.574997 -40 95.191742
-46.724998 -40 81.782799
-24.375 -40 90.5355
11.625 -40 92.521103
27.525 -40 95.0177
47.775002 -40 95.419197
66.675003 -40 94.908203
-80.625 -39 71.646317
-50.474998 -39 84.40303
-25.424999 -39 90.719109
8.1750002 -39 93.905609
24.375 -39 95.117676
29.625 -39 95.105881
47.174999 -39 95.543205
70.724998 -39 95.172325
-78.824997 -39 71.226997
-46.125 -39 81.892303
-24.225 -39 90.5793
11.625 -39 92.484596
26.775 -39 95.010399
31.424999 -39 95.061501
66.375 -39 94.864403
-79.574997 -38 72.991173
-50.025002 -38 84.591545
-25.424999 -38 90.777504
7.875 -38 93.873337
24.525 -38 95.109482
27.674999 -38 95.108322
44.174999 -38 95.530739
70.724998 -38 95.151207
-76.425003 -38 72.190598
-45.974998 -38 82.118599
-23.924999 -38 90.630402
11.175 -38 92.448097
26.025 -38 95.054199
30.674999 -38 95.054199
67.125 -38 94.827904
-78.074997 -37 73.786995
-49.424999 -37 84.815208
-25.275 -37 90.816017
7.5749998 -37 93.880692
24.375 -37 95.080276
45.224998 -37 95.517326
70.875 -37 95.119972
-75.074997 -37 72.898697
-45.375 -37 82.257301
-23.775 -37 90.732597
11.025 -37 92.397003
25.725 -37 94.995796
66.824997 -37 94.8498
-76.875 -36 74.504265
-48.825001 -36 85.007126
-25.275 -36 90.86499
7.2750001 -36 93.876244
20.775 -36 95.050819
28.125 -36 95.085518
46.125 -36 95.531059
71.175003 -36 95.089981
-74.025002 -36 73.5411
-44.325001 -36 82.476303
-23.025 -36 90.718002
10.275 -36 92.440804
25.725 -36 94.981201
29.775 -36 95.032303
66.525002 -36 94.806
-75.974998 -35 75.035011
-48.375 -35 85.218887
-25.275 -35 90.919968
6.9749999 -35 93.846359
25.725 -35 95.074211
44.174999 -35 95.510269
47.025002 -35 95.508194
71.175003 -35 95.073784
-72.824997 -35 73.986397
-44.025002 -35 82.688004
-23.924999 -35 90.776398
10.725 -35 92.345901
36.224998 -35 95.010399
45.375 -35 95.462997
67.125 -35 94.784103
-75.074997 -34 75.474266
-47.775002 -34 85.382225
-25.125 -34 90.966782
6.6750002 -34 93.804955
24.075001 -34 95.069298
27.975 -34 95.066582
44.025002 -34 95.484909
46.724998 -34 95.506332
71.324997 -34 95.015793
-72.224998 -34 74.402496
-43.875 -34 82.782898
-24.075001 -34 90.791
10.725 -34 92.280197
25.125 -34 95.010399
29.325001 -34 94.995796
45.525002 -34 95.419197
67.125 -34 94.689201
-74.324997 -33 75.86055
-47.325001 -33 85.579491
-24.975 -33 91.024734
6.375 -33 93.795937
24.075001 -33 95.051605
43.125 -33 95.463722
47.025002 -33 95.448685
71.324997 -33 94.935036
-71.324997 -33 74.738297
-42.974998 -33 82.987297
-23.025 -33 90.856697
9.9750004 -33 92.199898
26.924999 -33 94.988503
44.474998 -33 95.389999
68.925003 -33 94.667297
-73.724998 -32 76.176796
-46.875 -32 85.747742
-24.975 -32 91.063393
6.0749998 -32 93.766258
23.775 -32 95.017586
44.325001 -32 95.454048
71.625 -32 94.920609
-71.175003 -32 75.096001
-42.525002 -32 83.125999
-23.025 -32 90.9151
9.8249998 -32 92.207199
24.225 -32 94.952003
69.074997 -32 94.594299
-73.275002 -31 76.450684
-46.275002 -31 85.897339
-24.825001 -31 91.125252
5.7750001 -31 93.725288
24.525 -31 95.002708
33.525002 -31 95.060936
44.325001 -31 95.42997
71.625 -31 94.803719
-69.974998 -31 75.336899
-41.775002 -31 83.235497
-23.325001 -31 90.951599
9.2250004 -31 92.163399
26.475 -31 94.930099
33.974998 -31 95.025002
68.175003 -31 94.521301
-72.675003 -30 76.725861
-45.674999 -30 86.082314
-24.525 -30 91.156898
5.625 -30 93.710976
21.225 -30 94.935028
25.275 -30 94.967957
31.125 -30 94.998009
43.875 -30 95.406555
-95.775002 -30 71.312531
-72.074997 -30 76.992363
-45.224998 -30 86.239128
-24.375 -30 91.23365
5.1750002 -30 93.639664
31.875 -30 95.001595
43.724998 -30 95.361069
-69.375 -30 75.614304
-41.775002 -30 83.5056
-23.174999 -30 91.002701
9.2250004 -30 92.1269
21.674999 -30 94.835197
28.125 -30 94.8936
33.525002 -30 94.878998
3.4028235e+38 -30 3.4028235e+38
-95.775002 -30 58.868099
-69.375 -30 75.614304
-41.775002 -30 83.5056
-23.174999 -30 91.002701
9.2250004 -30 92.1269
33.525002 -30 94.878998
-71.625 -29 77.302208
-44.625 -29 86.418953
-24.225 -29 91.279442
4.7249999 -29 93.563332
24.075001 -29 94.919014
28.125 -29 94.94603
31.875 -29 94.982925
44.025002 -29 95.363953
-68.625 -29 76.1399
-39.525002 -29 83.812202
-22.575001 -29 91.097603
8.1750002 -29 92.221802
24.825001 -29 94.8498
29.475 -29 94.835197
35.775002 -29 94.886299
-71.025002 -28 77.594482
-44.174999 -28 86.604248
-24.225 -28 91.314728
4.2750001 -28 93.529297
30.975 -28 94.951248
44.325001 -28 95.333321
-67.875 -28 76.4319
-39.825001 -28 83.972801
-22.424999 -28 91.134102
7.5749998 -28 92.265602
34.125 -28 94.864403
-70.574997 -27 77.880791
-43.575001 -27 86.772659
-24.075001 -27 91.384781
3.5250001 -27 93.45224
23.924999 -27 94.878464
30.825001 -27 94.942184
43.424999 -27 95.319687
74.474998 -27 93.269981
-67.574997 -27 76.621696
-39.075001 -27 84.0896
-20.775 -27 91.185204
6.9749999 -27 92.302101
24.825001 -27 94.806
34.275002 -27 94.835197
72.525002 -27 93.083199
-70.125 -26 78.120941
-42.974998 -26 86.95134
-23.775 -26 91.450638
2.7750001 -26 93.361923
21.075001 -26 94.809006
30.225 -26 94.924728
43.125 -26 95.277451
73.125 -26 93.904144
-66.824997 -26 76.942902
-38.174999 -26 84.2575
-20.625 -26 91.236298
6.6750002 -26 92.440804
21.674999 -26 94.711098
32.625 -26 94.762199
70.724998 -26 93.4263
-69.525002 -25 78.372482
-42.525002 -25 87.105804
-23.625 -25 91.48877
2.0250001 -25 93.257011
20.475 -25 94.782005
27.975 -25 94.869926
30.225 -25 94.875862
44.174999 -25 95.250778
72.074997 -25 94.440826
-66.525002 -25 77.139999
-37.424999 -25 84.388901
-21.525 -25 91.272797
5.9250002 -25 92.557602
22.275 -25 94.718399
29.174999 -25 94.813301
32.625 -25 94.689201
68.324997 -25 93.7183
-68.925003 -24 78.64296
-41.924999 -24 87.236473
-23.625 -24 91.532242
0.97500002 -24 93.137383
19.424999 -24 94.742683
30.225 -24 94.850533
43.275002 -24 95.200508
72.675003 -24 94.365463
-65.474998 -24 77.439301
-37.575001 -24 84.461899
-19.424999 -24 91.272797
4.4250002 -24 92.652496
22.275 -24 94.696503
32.775002 -24 94.645401
66.675003 -24 93.8862
-68.474998 -23 78.880058
-41.325001 -23 87.399002
-23.475 -23 91.53759
0.375 -23 93.030037
18.075001 -23 94.701309
29.174999 -23 94.822571
42.525002 -23 95.144936
72.525002 -23 94.306015
-65.324997 -23 77.599899
-36.974998 -23 84.6371
-20.325001 -23 91.309303
3.5250001 -23 92.893402
19.575001 -23 94.601601
32.924999 -23 94.594299
66.824997 -23 93.871597
-67.875 -22 79.100525
-40.875 -22 87.52652
-23.475 -22 91.56221
17.924999 -22 94.654732
28.875 -22 94.793419
41.025002 -22 95.101105
43.275002 -22 95.094048
72.824997 -22 94.248055
-64.574997 -22 77.870003
-35.924999 -22 84.783096
-20.025 -22 91.294701
20.775 -22 94.5578
31.875 -22 94.565102
42.375 -22 95.054199
67.574997 -22 93.900803
-67.425003 -21 79.330833
-40.275002 -21 87.652359
-23.325001 -21 91.592064
19.424999 -21 94.622925
28.725 -21 94.737877
41.625 -21 95.056328
72.824997 -21 94.148277
-63.674999 -21 78.059799
-35.924999 -21 84.877998
-21.225 -21 91.294701
19.875 -21 94.579697
32.625 -21 94.499397
69.224998 -21 93.849701
-66.824997 -20 79.601746
-39.825001 -20 87.827034
-23.325001 -20 91.626022
18.375 -20 94.563057
28.575001 -20 94.686363
40.424999 -20 95.008736
72.974998 -20 94.110298
-63.525002 -20 78.322601
-35.174999 -20 85.024002
-21.375 -20 91.338501
19.875 -20 94.484802
32.474998 -20 94.462898
68.474998 -20 93.783997
-66.224998 -19 79.818863
-39.224998 -19 87.969101
-23.174999 -19 91.640488
17.475 -19 94.528267
28.275 -19 94.681747
42.525002 -19 94.974159
73.125 -19 93.997719
-63.075001 -19 78.497803
-34.424999 -19 85.155403
-20.025 -19 91.360397
20.775 -19 94.441002
31.275 -19 94.367996
70.574997 -19 93.725601
-65.775002 -18 80.045151
-38.625 -18 88.111961
-23.025 -18 91.650482
19.275 -18 94.50251
28.125 -18 94.62394
39.674999 -18 94.936195
73.125 -18 93.935745
-62.474998 -18 78.753304
-33.674999 -18 85.330597
-19.875 -18 91.382301
21.674999 -18 94.419098
30.975 -18 94.316902
69.224998 -18 93.659897
-65.175003 -17 80.285988
-38.174999 -17 88.252869
-22.725 -17 91.670479
16.575001 -17 94.439255
27.825001 -17 94.607384
38.924999 -17 94.878838
73.275002 -17 93.859497
-61.724998 -17 78.935799
-33.375 -17 85.410896
-19.575001 -17 91.411499
17.475 -17 94.360703
30.674999 -17 94.273102
70.875 -17 93.5942
-64.724998 -16 80.480431
-37.575001 -16 88.366859
-22.575001 -16 91.672897
18.225 -16 94.388573
27.674999 -16 94.540985
39.224998 -16 94.81752
73.574997 -16 93.787178
-61.424999 -16 79.162102
-32.775002 -16 85.505798
-20.475 -16 91.411499
20.625 -16 94.280403
30.075001 -16 94.200104
70.275002 -16 93.484703
-64.125 -15 80.707008
-36.974998 -15 88.511391
-22.125 -15 91.673462
18.375 -15 94.331146
27.225 -15 94.47348
39.375 -15 94.765686
73.574997 -15 93.691345
-93.525002 -15 74.446976
-63.674999 -15 80.90567
-36.375 -15 88.624779
-21.825001 -15 91.64743
17.475 -15 94.283363
27.375 -15 94.415794
39.224998 -15 94.704498
73.574997 -15 93.614349
-60.825001 -15 79.300797
-32.474998 -15 85.608002
-18.975 -15 91.382301
19.125 -15 94.207397
30.075001 -15 94.068703
70.875 -15 93.3825
3.4028235e+38 -15 3.4028235e+38
-93.525002 -15 63.218899
-60.825001 -15 79.300797
-32.474998 -15 85.608002
-18.975 -15 91.382301
19.125 -15 94.207397
30.075001 -15 94.068703
70.875 -15 93.3825
-63.075001 -14 81.118156
-35.924999 -14 88.712524
-21.225 -14 91.560089
18.225 -14 94.237656
26.625 -14 94.331467
39.375 -14 94.654083
73.724998 -14 93.516708
-59.625 -14 79.724197
-31.275 -14 85.790497
-18.525 -14 91.353104
19.875 -14 94.185501
29.775 -14 93.973801
70.574997 -14 93.265701
-62.625 -13 81.283936
-35.325001 -13 88.817375
-20.924999 -13 91.526596
17.775 -13 94.167961
26.475 -13 94.291634
38.474998 -13 94.586868
73.875 -13 93.385353
-59.325001 -13 79.943199
-30.825001 -13 85.951103
-18.825001 -13 91.345802
20.775 -13 94.0979
29.924999 -13 93.937302
70.875 -13 93.192703
-62.025002 -12 81.477791
-34.875 -12 88.962074
-20.174999 -12 91.491089
15.525 -12 94.101105
26.174999 -12 94.204773
38.775002 -12 94.525864
74.025002 -12 93.287735
-58.424999 -12 80.089203
-29.924999 -12 85.987602
-18.075001 -12 91.353104
16.725 -12 94.032204
29.924999 -12 93.805901
70.425003 -12 93.075897
-61.424999 -11 81.680771
-34.275002 -11 89.041153
-19.424999 -11 91.422493
15.375 -11 94.022636
18.375 -11 94.019142
26.025 -11 94.140846
38.474998 -11 94.447723
74.025002 -11 93.153824
-58.125 -11 80.206001
-29.325001 -11 86.111702
-18.825001 -11 91.3312
16.875 -11 93.966499
18.674999 -11 93.981102
28.875 -11 93.769402
71.474998 -11 92.973701
-60.974998 -10 81.850548
-33.674999 -10 89.15271
-18.674999 -10 91.395454
15.525 -10 93.954254
25.575001 -10 94.080704
36.375 -10 94.389458
74.474998 -10 93.063553
-57.375 -10 80.432297
-28.875 -10 86.162804
-18.225 -10 91.345802
16.575001 -10 93.864304
29.625 -10 93.710999
70.425003 -10 92.907997
-60.375 -9 82.015869
-33.075001 -9 89.253273
14.475 -9 93.859253
19.275 -9 93.928421
25.424999 -9 94.040642
37.125 -9 94.317848
74.474998 -9 92.966835
-56.924999 -9 80.592903
-27.975 -9 86.250397
14.475 -9 93.827797
20.325001 -9 93.864304
27.975 -9 93.616096
71.474998 -9 92.769302
-59.924999 -8 82.189339
-32.625 -8 89.326302
20.775 -8 93.8881
25.125 -8 93.946671
37.424999 -8 94.256828
74.474998 -8 92.830276
-55.875 -8 80.680496
-27.674999 -8 86.359901
22.575001 -8 93.835098
27.975 -8 93.506599
71.474998 -8 92.681702
-59.325001 -7 82.35598
-32.025002 -7 89.431145
24.375 -7 93.891235
35.775002 -7 94.186874
74.775002 -7 92.710381
-56.174999 -7 80.833801
-26.325001 -7 86.411003
27.825001 -7 93.404404
71.625 -7 92.550301
-90.675003 -6 66.921082
-58.875 -6 82.496735
-31.575001 -6 89.543159
24.375 -6 93.823624
35.325001 -6 94.102692
74.775002 -6 92.608086
-88.125 -6 66.394402
-55.125 -6 81.016296
-26.025 -6 86.432899
27.825001 -6 93.397102
71.625 -6 92.411598
-89.025002 -5 66.09951
-54.375 -5 81.291252
-25.424999 -5 86.579391
17.924999 -5 93.624771
28.275 -5 93.36499
72.074997 -5 92.38324
-88.574997 -5 65.788498
-54.375 -5 81.169601
-25.424999 -5 86.498596
27.525 -5 93.287598
71.324997 -5 92.331299
-80.625 -4 73.942261
-57.825001 -4 82.735718
-30.525 -4 89.657242
23.775 -4 93.652847
34.875 -4 93.946129
75.074997 -4 92.348793
-78.675003 -4 73.241798
-54.224998 -4 81.213402
-25.575001 -4 86.4767
26.475 -4 93.170799
71.925003 -4 92.2145
-78.974998 -3 74.914291
-57.224998 -3 82.887825
-29.924999 -3 89.726685
23.625 -3 93.542763
34.724998 -3 93.862053
75.224998 -3 92.233345
-76.724998 -3 74.0886
-53.174999 -3 81.352097
-24.674999 -3 86.586197
27.525 -3 93.0905
72.224998 -3 92.075798
-77.775002 -2 75.43808
-56.625 -2 83.020714
-29.475 -2 89.783882
18.375 -2 93.425674
23.325001 -2 93.472496
34.424999 -2 93.80323
75.224998 -2 92.09568
-74.925003 -2 74.7164
-53.025002 -2 81.461601
-24.375 -2 86.593498
20.475 -2 93.375198
26.625 -2 93.010201
72.074997 -2 91.966301
-76.574997 -1 76.0336
-56.174999 -1 83.169945
-28.875 -1 89.863045
23.025 -1 93.420502
34.275002 -1 93.736488
75.375 -1 91.96994
-91.875 -1 72.176819
-75.375 -1 76.562119
-55.575001 -1 83.302345
-28.424999 -1 89.912865
22.725 -1 93.337494
33.825001 -1 93.680801
75.375 -1 91.851273
-73.724998 -1 75.168999
-52.724998 -1 81.541901
-23.625 -1 86.681099
27.225 -1 92.7985
73.724998 -1 91.739998
3.4028235e+38 -1 3.4028235e+38
-91.875 -1 64.576698
-73.724998 -1 75.168999
-52.724998 -1 81.541901
-23.625 -1 86.681099
27.225 -1 92.7985
73.724998 -1 91.739998
-74.474998 0 76.843987
-54.974998 0 83.439987
-27.825001 0 89.972076
22.424999 0 93.270233
33.525002 0 93.558426
75.525002 0 91.735901
-72.224998 0 75.906303
-51.375 0 81.680603
-22.875 0 86.754097
26.775 0 92.747398
73.125 0 91.564796
-73.574997 1 77.161568
-54.674999 1 83.52375
-27.375 1 90.005707
21.825001 1 93.170319
33.674999 1 93.477875
75.824997 1 91.580231
-71.175003 1 76.191002
-50.924999 1 81.782799
-22.424999 1 86.776001
25.125 1 92.608704
74.175003 1 91.462601
-72.824997 2 77.457993
-54.525002 2 83.486824
-26.775 2 90.054695
21.075001 2 93.064362
33.075001 2 93.394585
75.824997 2 91.4431
-70.574997 2 76.483002
-49.575001 2 81.826599
-20.924999 2 86.7687
26.174999 2 92.484596
73.125 2 91.294701
-72.074997 3 77.683884
-54.525002 3 83.415787
-26.174999 3 90.094536
18.975 3 92.969452
21.375 3 92.973976
32.474998 3 93.313454
76.125 3 91.284653
-70.125 3 76.665497
-49.724998 3 81.877701
-20.924999 3 86.754097
20.325001 3 92.893402
25.875 3 92.404297
74.324997 3 91.170601
-71.474998 4 77.872444
-54.525002 4 83.351906
-25.725 4 90.123734
21.225 4 92.906586
32.625 4 93.221931
76.275002 4 91.116211
-69.074997 4 76.928299
-49.424999 4 81.943398
-20.775 4 86.8125
24.825001 4 92.258301
73.574997 4 90.988098
-70.724998 5 78.126328
-54.525002 5 83.329308
-51.224998 5 83.144829
-25.125 5 90.186974
20.775 5 92.809586
32.174999 5 93.125908
75.824997 5 90.944382
-68.625 5 77.154602
-52.424999 5 82.4179
-48.674999 5 82.089401
-20.025 5 86.863602
25.725 5 92.163399
73.425003 5 90.791
-69.974998 6 78.358757
-54.525002 6 83.265694
-50.924999 6 83.620583
-24.525 6 90.241539
20.475 6 92.695946
32.025002 6 93.068787
89.625 6 83.966904
-67.724998 6 77.3517
-52.424999 6 82.337601
-48.224998 6 82.177002
-18.674999 6 86.892799
23.924999 6 92.112297
88.275002 6 83.490997
-69.375 7 78.577721
-54.525002 7 83.22921
-50.775002 7 83.942444
-24.075001 7 90.238373
20.025 7 92.613655
32.174999 7 92.962906
-66.974998 7 77.556099
-52.424999 7 82.2062
-47.775002 7 82.213501
-18.674999 7 86.892799
24.225 7 92.0028
-68.625 8 78.741623
-54.525002 8 83.184036
-50.325001 8 84.182983
-23.475 8 90.278084
19.875 8 92.532547
31.725 8 92.889954
80.625 8 89.06076
-66.375 8 77.796997
-52.424999 8 82.147797
-47.025002 8 82.286499
-18.375 8 86.929298
24.225 8 91.8787
78.824997 8 88.732399
-67.875 9 78.979881
-54.375 9 83.135826
-50.025002 9 84.359528
-22.725 9 90.309433
19.725 9 92.453407
31.424999 9 92.761421
79.574997 9 89.56427
-65.775002 9 77.950302
-52.575001 9 82.060204
-46.125 9 82.352203
-17.025 9 87.038803
23.174999 9 91.718102
77.474998 9 89.053596
-67.125 10 79.151871
-54.375 10 83.07238
-49.575001 10 84.460678
-22.125 10 90.362907
19.424999 10 92.315781
31.424999 10 92.654762
78.525002 10 89.893349
-65.025002 10 78.1474
-52.575001 10 82.089401
-45.375 10 82.447098
-17.025 10 87.140999
22.875 10 91.637802
76.574997 10 89.2799
-66.375 11 79.354233
-54.375 11 83.02578
-49.125 11 84.534592
-21.225 11 90.441612
19.275 11 92.208488
31.125 11 92.546745
77.625 11 90.070213
-64.275002 11 78.388298
-52.575001 11 81.965302
-45.525002 11 82.498199
-16.424999 11 87.374603
22.875 11 91.491798
75.375 11 89.418602
-65.625 12 79.551552
-54.375 12 82.984886
-48.525002 12 84.617149
-20.174999 12 90.469551
19.125 12 92.09137
30.825001 12 92.450783
77.474998 12 89.85891
-63.674999 12 78.578102
-52.575001 12 81.9142
-44.025002 12 82.593102
-15.075 12 87.498703
22.725 12 91.294701
74.324997 12 89.550003
-65.025002 13 79.736168
-54.375 13 82.927582
-47.924999 13 84.69458
-19.424999 13 90.472733
18.975 13 91.957512
30.674999 13 92.319534
77.625 13 89.700806
-62.775002 13 78.7314
-52.575001 13 81.943398
-44.625 13 82.593102
-13.875 13 87.885597
22.575001 13 91.228996
75.525002 13 89.498901
-54.525002 14 82.818909
-47.474998 14 84.767876
-19.275 14 90.431068
18.674999 14 91.846039
30.674999 14 92.196808
77.775002 14 89.531303
-90.375 14 72.722046
-54.525002 14 82.782578
-46.875 14 84.83136
-19.275 14 90.377556
-13.275 14 90.398994
18.375 14 91.713844
30.075001 14 92.108269
77.775002 14 89.387444
-52.575001 14 81.709801
-43.424999 14 82.607697
-12.075 14 88.4842
21.975 14 90.9151
75.974998 14 89.206902
3.4028235e+38 14 3.4028235e+38
-89.474998 14 64.1679
-52.575001 14 81.709801
-43.424999 14 82.607697
-13.275 14 88.710503
-12.075 14 88.4842
21.975 14 90.9151
75.974998 14 89.206902
-54.525002 15 82.698914
-46.424999 15 84.915924
-18.975 15 90.323212
18.075001 15 91.608238
29.775 15 91.990219
77.925003 15 89.188507
-52.424999 15 81.629501
-42.224998 15 82.7099
-15.675 15 90.017197
22.275 15 90.791
75.974998 15 89.060898
-54.525002 16 82.658028
-45.825001 16 84.978317
-18.674999 16 90.292267
17.924999 16 91.509323
29.475 16 91.885666
78.074997 16 88.988464
-52.575001 16 81.600304
-41.025002 16 82.724503
-16.125 16 89.966103
21.825001 16 90.710701
77.625 16 88.914902
-54.674999 17 82.601517
-45.375 17 85.036224
-18.525 17 90.26651
17.625 17 91.344307
29.475 17 91.773468
78.224998 17 88.824051
-52.424999 17 81.534599
-40.275002 17 82.819397
-14.625 17 89.944199
21.375 17 90.528198
76.425003 17 88.703201
-54.674999 18 82.531143
-44.775002 18 85.124786
-18.375 18 90.199821
17.174999 18 91.242538
29.325001 18 91.641167
78.375 18 88.620094
-52.424999 18 81.417801
-40.275002 18 82.804802
-13.275 18 89.820099
21.075001 18 90.396797
77.324997 18 88.520699
-54.525002 19 82.463852
-44.174999 19 85.184044
-17.924999 19 90.148216
17.025 19 91.10643
29.174999 19 91.507385
78.375 19 88.428162
-52.724998 19 81.4543
-39.825001 19 82.834
-13.275 19 89.747101
20.025 19 90.250801
76.275002 19 88.301697
-77.025002 20 74.148781
-54.525002 20 82.366211
-43.724998 20 85.229019
-17.924999 20 90.075981
16.575001 20 90.966606
28.575001 20 91.359879
78.675003 20 88.251007
-74.775002 20 73.774696
-52.424999 20 81.264503
-39.224998 20 82.855904
-13.275 20 89.688698
20.475 20 90.0756
76.875 20 88.082703
-74.474998 21 75.394806
-54.525002 21 82.304604
-43.125 21 85.244751
-17.775 21 89.989365
16.575001 21 90.829391
28.275 21 91.265152
78.675003 21 88.049744
-71.775002 21 74.752899
-52.575001 21 81.257202
-38.625 21 82.812103
-12.675 21 89.6157
19.875 21 89.936897
76.875 21 87.944
-72.525002 22 76.077629
-54.525002 22 82.226974
-42.525002 22 85.303741
-17.625 22 89.960785
16.424999 22 90.711235
28.275 22 91.141991
78.824997 22 87.82238
-69.074997 22 75.249298
-52.575001 22 81.147697
-38.174999 22 82.797501
-13.725 22 89.586502
20.475 22 89.768997
78.074997 22 87.724998
-71.324997 23 76.512199
-54.525002 23 82.157776
-41.924999 23 85.35376
-17.625 23 89.896332
15.825 23 90.566452
28.275 23 90.995598
78.824997 23 87.639336
-67.125 23 75.68
-52.575001 23 81.0382
-36.825001 23 82.841301
-13.425 23 89.484299
19.575001 23 89.674103
76.574997 23 87.542503
-69.675003 24 77.079178
-54.525002 24 82.113144
-41.474998 24 85.394569
-17.325001 24 89.831978
15.525 24 90.449982
28.125 24 90.907028
79.275002 24 87.400955
-66.074997 24 75.979301
-52.275002 24 80.957901
-36.375 24 82.826698
-13.425 24 89.462402
19.125 24 89.542702
77.324997 24 87.287003
-68.775002 25 77.35273
-54.525002 25 82.055138
-40.875 25 85.43914
-17.325001 25 89.763832
-10.125 25 89.481956
15.375 25 90.347275
27.225 25 90.787338
78.974998 25 87.203529
-65.324997 25 76.191002
-52.424999 25 80.862999
-36.075001 25 82.841301
-12.675 25 89.352898
-9.5249996 25 89.425903
18.825001 25 89.382103
77.925003 25 87.155602
-67.724998 26 77.57473
-54.525002 26 81.944748
-40.275002 26 85.46003
-17.025 26 89.659004
5.625 26 89.970779
5.9250002 26 89.970764
15.075 26 90.181709
27.375 26 90.656654
79.425003 26 86.937897
-63.825001 26 76.380798
-52.424999 26 80.797302
-35.625 26 82.863197
-13.125 26 89.294502
5.9250002 26 89.915001
5.9250002 26 89.915001
20.174999 26 89.206902
77.625 26 86.834396
-66.974998 27 77.759537
-54.375 27 81.902481
-39.825001 27 85.515411
-17.025 27 89.58403
14.925 27 90.024277
27.375 27 90.511261
79.425003 27 86.738579
-63.224998 27 76.504898
-52.424999 27 80.665901
-35.025002 27 82.768303
-12.975 27 89.192299
19.575001 27 89.039001
77.775002 27 86.615402
-66.224998 28 77.904434
-54.375 28 81.789192
-39.224998 28 85.525673
-16.875 28 89.506989
3.9749999 28 89.665314
14.625 28 89.906624
26.924999 28 90.390327
79.574997 28 86.469467
-62.924999 28 76.570602
-52.424999 28 80.680496
-34.724998 28 82.7537
-12.975 28 89.141197
5.0250001 28 89.608398
18.525 28 88.856499
78.824997 28 86.381798
-65.775002 29 78.000854
-54.375 29 81.701836
-38.625 29 85.503586
-16.725 29 89.429817
4.2750001 29 89.537712
14.175 29 89.771179
26.625 29 90.247208
79.275002 29 86.271439
-89.175003 29 70.369507
-65.175003 29 78.073906
-54.375 29 81.603203
-38.174999 29 85.503624
-16.575001 29 89.315567
-11.025 29 88.982201
13.875 29 89.596283
26.174999 29 90.072723
-62.325001 29 76.5998
-52.424999 29 80.359299
-32.474998 29 82.717201
-12.375 29 88.9076
4.2750001 29 89.309097
17.775 29 88.557198
78.525002 29 85.973
3.4028235e+38 29 3.4028235e+38
-89.175003 29 62.649502
-62.325001 29 76.5998
-52.424999 29 80.359299
-32.474998 29 82.717201
-12.375 29 88.9076
-8.625 29 88.914902
17.775 29 88.557198
-64.574997 30 78.163925
-54.375 30 81.484749
-37.575001 30 85.508308
-16.424999 30 89.256668
-11.175 30 88.889549
13.725 30 89.487335
25.875 30 89.948776
-60.974998 30 76.7239
-52.424999 30 80.315498
-32.924999 30 82.702599
-13.425 30 88.790802
-6.6750002 30 88.798103
17.775 30 88.396599
-63.974998 31 78.258194
-54.224998 31 81.394806
-36.974998 31 85.526649
-16.275 31 89.146805
13.575 31 89.337799
25.575001 31 89.83065
-60.674999 31 76.855301
-52.424999 31 80.249802
-31.725 31 82.717201
-8.625 31 88.703201
17.775 31 88.265198
-63.525002 32 78.345322
-53.924999 32 81.155624
-36.525002 32 85.534569
-16.125 32 89.067726
-11.175 32 88.707451
3.9749999 32 89.012703
13.275 32 89.206261
25.125 32 89.688446
-60.375 32 76.906403
-52.275002 32 80.111099
-31.125 32 82.688004
-12.225 32 88.615601
-8.0249996 32 88.637497
4.875 32 88.951401
18.075001 32 88.126503
-63.075001 33 78.421677
-35.924999 33 85.546837
-16.125 33 88.991608
-10.725 33 88.634575
4.2750001 33 88.88121
12.825 33 89.100685
25.125 33 89.590324
81.375 33 84.451317
-59.625 33 76.957497
-30.975 33 82.629601
-12.075 33 88.586403
-8.1750002 33 88.498802
5.625 33 88.834602
17.625 33 87.944
79.125 33 84.235603
-62.474998 34 78.478371
-35.325001 34 85.519272
-15.825 34 88.878761
12.675 34 88.949303
24.825001 34 89.433334
80.324997 34 84.843826
-58.875 34 76.986702
-30.225 34 82.644203
-12.075 34 88.382004
16.575001 34 87.783401
77.775002 34 84.396202
-61.875 35 78.527428
-34.875 35 85.512627
-15.825 35 88.791847
12.375 35 88.804588
24.674999 35 89.26593
-58.275002 35 77.037804
-30.075001 35 82.571198
-6.0749998 35 88.316299
16.125 35 87.527901
-61.275002 36 78.596558
-34.424999 36 85.454361
-15.675 36 88.68409
12.075 36 88.669968
24.525 36 89.148727
-57.525002 36 77.0597
-28.725 36 82.476303
-8.1750002 36 88.148399
15.975 36 87.403801
-60.674999 37 78.661858
-33.825001 37 85.47332
-15.525 37 88.570236
-10.425 37 88.146225
11.925 37 88.48436
24.375 37 89.03022
-57.375 37 77.045097
-28.575001 37 82.439796
-11.775 37 88.053497
-5.0250001 37 88.016998
16.424999 37 87.2724
-60.075001 38 78.674225
-33.224998 38 85.435104
-15.525 38 88.456032
3.9749999 38 88.178497
11.625 38 88.349319
24.525 38 88.850792
-56.474998 38 77.118103
-27.674999 38 82.366798
-9.6750002 38 87.914803
4.2750001 38 88.119202
16.575001 38 87.1483
-59.625 39 78.737587
-32.474998 39 85.411957
-15.525 39 88.353951
11.325 39 88.217239
23.775 39 88.70504
-56.174999 39 77.081596
-27.825001 39 82.264603
-4.7249999 39 87.790703
16.275 39 87.046097
-59.025002 40 78.780785
-32.025002 40 85.402573
-15.225 40 88.237572
1.425 40 87.898102
10.875 40 88.062531
23.775 40 88.565437
-55.275002 40 77.176498
-26.775 40 82.264603
-5.4749999 40 87.652
3.075 40 87.8564
15.675 40 86.965797
-58.424999 41 78.83828
-31.424999 41 85.392593
-15.075 41 88.136375
1.125 41 87.734924
10.125 41 87.916962
23.924999 41 88.426437
43.575001 41 87.607445
-54.974998 41 77.1838
-26.325001 41 82.191597
-5.0250001 41 87.542503
1.575 41 87.673897
15.525 41 86.951202
41.924999 41 87.5644
-57.974998 42 78.880692
-30.825001 42 85.351791
-15.075 42 88.037262
9.6750002 42 87.775902
22.125 42 88.268044
-54.224998 42 77.1838
-24.825001 42 82.162399
-5.3249998 42 87.3965
15.825 42 86.921997
-57.375 43 78.925346
-30.375 43 85.306847
-14.625 43 87.907112
9.0749998 43 87.602776
22.725 43 88.13652
44.625 43 87.292473
-53.625 43 77.205704
-25.125 43 82.096703
-6.6750002 43 87.243202
16.125 43 86.943901
42.674999 43 87.243202
-56.775002 44 78.956223
-29.775 44 85.23806
-14.325 44 87.758842
1.725 44 87.347824
8.4750004 44 87.473587
22.725 44 87.983688
43.875 44 87.127831
-86.324997 44 69.574341
-56.174999 44 78.979591
-29.174999 44 85.208282
-13.725 44 87.550613
9.2250004 44 87.361618
22.424999 44 87.827911
44.625 44 86.969704
-52.275002 44 77.139999
-24.075001 44 81.994499
-4.4250002 44 86.943901
2.4749999 44 87.133698
14.925 44 86.958504
42.375 44 86.863602
3.4028235e+38 44 3.4028235e+38
-86.324997 44 63.3722
-52.275002 44 77.139999
-24.075001 44 81.994499
-4.4250002 44 86.943901
14.925 44 86.958504
42.375 44 86.863602
-83.474998 45 64.847298
-55.724998 45 78.985901
-28.575001 45 85.134453
-13.575 45 87.430008
10.425 45 87.206306
21.674999 45 87.663795
44.474998 45 86.772018
-82.125 45 64.423401
-51.525002 45 77.161903
-22.875 45 81.870399
-7.7249999 45 86.819801
12.825 45 87.1045
42.224998 45 86.637299
-74.474998 46 72.055161
-55.125 46 79.016945
-28.125 46 85.09021
-13.125 46 87.232559
21.225 46 87.492477
44.474998 46 86.597198
-71.625 46 71.445999
-51.224998 46 77.1035
-22.424999 46 81.760902
-8.3249998 46 86.651901
39.825001 46 86.454803
-72.525002 47 72.912056
-54.674999 47 79.017181
-27.525 47 84.99897
-12.375 47 86.97966
-5.7750001 47 86.614098
20.924999 47 87.338455
44.174999 47 86.446777
-69.675003 47 72.044601
-50.775002 47 77.088898
-22.275 47 81.709801
-7.5749998 47 86.462097
-4.7249999 47 86.542397
41.775002 47 86.294197
-71.175003 48 73.417488
-54.525002 48 78.922714
-26.924999 48 84.96106
-11.925 48 86.785027
21.525 48 87.178482
44.325001 48 86.278206
-68.474998 48 72.468002
-50.025002 48 77.081596
-21.525 48 81.593002
-3.825 48 86.381798
40.125 48 86.119003
-69.675003 49 73.865227
-54.525002 49 78.768951
-26.325001 49 84.888428
-11.325 49 86.59404
21.975 49 87.024506
44.174999 49 86.132385
-67.275002 49 72.781898
-49.424999 49 76.994003
-21.225 49 81.614899
-6.9749999 49 86.264999
42.224998 49 85.885399
-68.625 50 74.128448
-54.525002 50 78.6241
-25.725 50 84.840538
-10.725 50 86.428886
20.924999 50 86.887161
43.875 50 85.973213
-66.074997 50 73.044701
-48.224998 50 77.052399
-20.025 50 81.541901
-7.5749998 50 86.133598
40.275002 50 85.710197
-67.724998 51 74.319244
-54.525002 51 78.46241
-51.075001 51 78.166504
-25.275 51 84.801117
-9.9750004 51 86.228523
20.325001 51 86.732445
43.875 51 85.820198
-65.474998 51 73.234497
-52.424999 51 77.483101
-47.924999 51 76.979401
-19.575001 51 81.425102
-4.2750001 51 86.002197
39.674999 51 85.571503
-66.824997 52 74.475197
-54.525002 52 78.30423
-50.625 52 78.486839
-24.674999 52 84.718689
-9.5249996 52 86.047523
19.125 52 86.563568
43.724998 52 85.631615
-64.425003 52 73.409698
-52.424999 52 77.359001
-47.924999 52 76.972099
-19.125 52 81.337502
-3.675 52 85.834297
38.924999 52 85.3452
-66.074997 53 74.589188
-54.375 53 78.176224
-50.474998 53 78.837036
-24.075001 53 84.639084
-8.9250002 53 85.842827
-1.725 53 85.809433
19.875 53 86.387016
43.275002 53 85.473625
-63.674999 53 73.489998
-52.275002 53 77.088898
-47.325001 53 76.920998
-18.525 53 81.227997
-6.9749999 53 85.702904
-1.275 53 85.753998
39.525002 53 85.177299
-65.324997 54 74.684357
-54.375 54 78.002121
-50.325001 54 79.002914
-23.475 54 84.582344
-8.4750004 54 85.664604
19.575001 54 86.221115
43.275002 54 85.304489
-62.924999 54 73.548401
-52.424999 54 77.008598
-46.275002 54 76.848
-17.625 54 81.1623
-4.4250002 54 85.5131
40.275002 54 84.965599
-64.425003 55 74.758293
-54.375 55 77.862274
-49.875 55 79.071716
-22.875 55 84.499336
-7.4250002 55 85.457039
18.825001 55 86.066635
43.125 55 85.141769
-62.325001 55 73.665199
-52.424999 55 76.789597
-45.825001 55 76.7677
-17.174999 55 81.074699
-3.375 55 85.286797
38.775002 55 84.812302
-54.375 56 77.685928
-49.424999 56 79.067085
-22.424999 56 84.424698
-6.6750002 56 85.293228
-4.875 56 85.296989
19.125 56 85.895164
42.674999 56 84.979874
-52.424999 56 76.665497
-45.224998 56 76.738503
-16.725 56 80.928703
-6.0749998 56 85.2211
-3.375 56 85.250298
37.724998 56 84.615196
-54.375 57 77.551514
-48.974998 57 79.066338
-21.825001 57 84.366737
-5.7750001 57 85.156601
18.225 57 85.732407
42.525002 57 84.80603
-52.424999 57 76.4757
-44.174999 57 76.687401
-16.424999 57 80.819199
-3.825 57 85.060501
37.275002 57 84.4254
-54.375 58 77.370331
-48.375 58 79.037209
-21.225 58 84.292236
-5.4749999 58 85.011292
18.075001 58 85.585678
42.375 58 84.656883
-84.375 58 65.27713
-54.375 58 77.209755
-47.775002 58 79.028397
-20.625 58 84.21537
17.174999 58 85.428139
42.224998 58 84.49585
85.574997 58 76.5056
-52.424999 58 76.176399
-43.275002 58 76.636299
-14.625 58 80.709702
-5.4749999 58 84.724701
38.025002 58 84.111504
3.4028235e+38 58 3.4028235e+38
-83.175003 58 61.561798
-52.424999 58 76.176399
-43.275002 58 76.636299
-14.625 58 80.709702
38.025002 58 84.111504
85.574997 58 75.964699
-54.375 59 77.044533
-47.174999 59 79.009651
-20.025 59 84.159798
17.924999 59 85.279457
41.775002 59 84.329514
84.974998 59 76.85215
-52.275002 59 75.964699
-42.825001 59 76.570602
-14.625 59 80.570999
37.724998 59 83.936302
83.324997 59 76.504898
-54.375 60 76.888603
-46.724998 60 78.958199
-19.424999 60 84.087822
17.775 60 85.088783
