# .PCD v0.7 - Point Cloud Data file format
VERSION 0.7
FIELDS x y z
SIZE 4 4 4
TYPE F F F
COUNT 1 1 1
WIDTH 1769
HEIGHT 1
VIEWPOINT 0 0 0 1 0 0 0
POINTS 1769
DATA ascii
-23.549999 16.385645 7.0307999
-23.700001 16.385645 7.0454001
-23.85 16.385645 6.9650998
-24 16.385645 7.0235
-24.15 16.385645 7.0964999
-24.299999 16.385645 7.1694999
-24.450001 16.385645 7.1549001
-24.6 16.385645 7.1402998
-24.75 16.385645 7.1476002
-24.9 16.385645 7.0892
-25.049999 16.385645 7.1111002
-25.200001 16.385645 7.1622
-25.35 16.385645 7.1402998
-25.5 16.385645 7.1549001
-25.65 16.385645 7.2059999
-25.799999 16.385645 7.2716999
-25.950001 16.385645 7.2571001
-26.1 16.385645 7.2059999
-26.25 16.385645 7.1257
-26.4 16.385645 7.2279
-26.549999 16.385645 7.3301001
-26.700001 16.385645 7.4250002
-26.85 16.385645 7.4761
-27 16.385645 7.5053
61.200001 17.321985 15.2433
61.049999 17.321985 15.2287
60.900002 17.321985 15.2579
60.75 17.321985 15.2579
60.599998 17.321985 15.2433
60.450001 17.321985 15.2433
60.299999 17.321985 15.2871
60.150002 17.321985 15.3163
60 17.321985 15.3309
59.849998 17.321985 15.2798
59.700001 17.321985 15.2871
59.549999 17.321985 15.2944
59.400002 17.321985 15.2214
59.25 17.321985 15.2068
59.099998 17.321985 15.1776
58.950001 17.321985 15.1484
58.799999 17.321985 15.1703
58.650002 17.321985 15.1776
58.5 17.321985 15.1776
58.349998 17.321985 15.1776
58.200001 17.321985 15.1557
58.049999 17.321985 15.1119
57.900002 17.321985 15.0827
57.75 17.321985 15.1119
57.599998 17.321985 15.09
57.450001 17.321985 15.0535
57.299999 17.321985 15.0097
57.150002 17.321985 15.0097
57 17.321985 15.0389
56.849998 17.321985 15.0608
56.700001 17.321985 15.0389
56.549999 17.321985 14.9951
56.400002 17.321985 14.9878
56.25 17.321985 15.0024
56.099998 17.321985 14.9294
55.950001 17.321985 14.9367
55.799999 17.321985 14.9513
55.650002 17.321985 14.944
55.5 17.321985 14.9732
55.349998 17.321985 14.9586
55.200001 17.321985 14.9221
55.049999 17.321985 14.9367
54.900002 17.321985 14.9075
54.75 17.321985 14.871
54.599998 17.321985 14.8564
54.450001 17.321985 14.8345
54.299999 17.321985 14.7907
54.150002 17.321985 14.8053
54 17.321985 14.9221
53.849998 17.321985 14.871
53.700001 17.321985 14.7907
53.549999 17.321985 14.725
53.400002 17.321985 14.7542
53.25 17.321985 14.7323
53.099998 17.321985 14.7323
52.950001 17.321985 14.7761
52.799999 17.321985 14.7323
52.650002 17.321985 14.7031
52.5 17.321985 14.7177
52.349998 17.321985 14.7104
52.200001 17.321985 14.7177
52.049999 17.321985 14.7323
51.900002 17.321985 14.725
51.75 17.321985 14.6666
51.599998 17.321985 14.652
51.450001 17.321985 14.6666
51.299999 17.321985 14.6593
51.150002 17.321985 14.6082
51 17.321985 14.579
50.849998 17.321985 14.6009
50.700001 17.321985 14.5936
50.549999 17.321985 14.579
50.400002 17.321985 14.5498
50.25 17.321985 14.4841
50.099998 17.321985 14.4768
49.950001 17.321985 14.4768
49.799999 17.321985 14.4695
49.650002 17.321985 14.4184
49.5 17.321985 14.4257
49.349998 17.321985 14.4549
49.200001 17.321985 14.433
49.049999 17.321985 14.4038
48.900002 17.321985 14.3746
48.75 17.321985 14.3454
48.599998 17.321985 14.3454
48.450001 17.321985 14.3089
48.299999 17.321985 14.2943
48.150002 17.321985 14.3381
48 17.321985 14.3527
47.849998 17.321985 14.3235
47.700001 17.321985 14.2505
47.549999 17.321985 14.2797
47.400002 17.321985 14.3016
47.25 17.321985 14.2943
47.099998 17.321985 14.214
46.950001 17.321985 14.1921
46.799999 17.321985 14.214
46.650002 17.321985 14.2651
46.5 17.321985 14.2286
46.349998 17.321985 14.214
46.200001 17.321985 14.214
46.049999 17.321985 14.2286
45.900002 17.321985 14.1921
45.75 17.321985 14.1702
45.599998 17.321985 14.1775
45.450001 17.321985 14.0972
45.299999 17.321985 14.1337
45.150002 17.321985 14.1629
45 17.321985 14.1045
44.849998 17.321985 14.0899
44.700001 17.321985 14.0461
44.549999 17.321985 14.0023
44.400002 17.321985 14.0315
44.25 17.321985 13.995
44.099998 17.321985 13.9585
43.950001 17.321985 13.9439
43.799999 17.321985 13.9439
43.650002 17.321985 13.9293
43.5 17.321985 13.9074
43.349998 17.321985 13.9074
43.200001 17.321985 13.9366
43.049999 17.321985 13.922
42.900002 17.321985 13.8563
42.75 17.321985 13.8928
42.599998 17.321985 13.8782
42.450001 17.321985 13.849
42.299999 17.321985 13.8928
42.150002 17.321985 13.8855
42 17.321985 13.8709
41.849998 17.321985 13.9001
41.700001 17.321985 13.8271
41.549999 17.321985 13.8198
41.400002 17.321985 13.8417
41.25 17.321985 13.7541
41.099998 17.321985 13.7541
40.950001 17.321985 13.7833
40.799999 17.321985 13.8198
40.650002 17.321985 13.7906
40.5 17.321985 13.7979
40.349998 17.321985 13.8271
40.200001 17.321985 13.8417
40.049999 17.321985 13.8052
39.900002 17.321985 13.7541
39.75 17.321985 13.7103
39.599998 17.321985 13.6446
39.450001 17.321985 13.6446
39.299999 17.321985 13.6665
39.150002 17.321985 13.6227
39 17.321985 13.6373
38.849998 17.321985 13.6592
38.700001 17.321985 13.6519
38.549999 17.321985 13.6519
38.400002 17.321985 13.6519
38.25 17.321985 13.6738
38.099998 17.321985 13.6446
37.950001 17.321985 13.6227
37.799999 17.321985 13.6008
37.650002 17.321985 13.5643
37.5 17.321985 13.5716
37.349998 17.321985 13.5789
37.200001 17.321985 13.5716
37.049999 17.321985 13.5862
36.900002 17.321985 13.5935
36.75 17.321985 13.6081
36.599998 17.321985 13.6519
36.450001 17.321985 13.5789
36.299999 17.321985 13.5205
36.150002 17.321985 13.484
36 17.321985 13.4986
35.849998 17.321985 13.5497
35.700001 17.321985 13.5862
35.549999 17.321985 13.5424
35.400002 17.321985 13.4986
35.25 17.321985 13.4767
35.099998 17.321985 13.4986
34.950001 17.321985 13.5278
34.799999 17.321985 13.5424
34.650002 17.321985 13.5351
34.5 17.321985 13.5205
34.349998 17.321985 13.5497
34.200001 17.321985 13.5789
34.049999 17.321985 13.5935
33.900002 17.321985 13.6373
33.75 17.321985 13.63
33.599998 17.321985 13.557
33.450001 17.321985 13.5716
33.299999 17.321985 13.5716
33.150002 17.321985 13.557
33 17.321985 13.557
32.849998 17.321985 13.5497
32.700001 17.321985 13.557
32.549999 17.321985 13.5862
32.400002 17.321985 13.6227
32.25 17.321985 13.6373
32.099998 17.321985 13.6154
31.950001 17.321985 13.6008
31.799999 17.321985 13.5497
31.65 17.321985 13.5351
31.5 17.321985 13.5862
31.35 17.321985 13.6446
31.200001 17.321985 13.6811
31.049999 17.321985 13.703
30.9 17.321985 13.557
30.75 17.321985 13.5278
30.6 17.321985 13.557
30.450001 17.321985 13.557
30.299999 17.321985 13.5716
30.15 17.321985 13.6008
30 17.321985 13.6227
29.85 17.321985 13.8198
29.700001 17.321985 8.4104996
29.549999 17.321985 8.3593998
29.4 17.321985 8.3302002
29.25 17.321985 8.3958998
29.1 17.321985 8.4104996
28.950001 17.321985 8.4251003
28.799999 17.321985 8.4834995
28.65 17.321985 8.3009996
28.5 17.321985 8.2937002
28.35 17.321985 8.3667002
28.200001 17.321985 8.2937002
28.049999 17.321985 8.3156004
27.9 17.321985 8.3667002
27.75 17.321985 8.4104996
27.6 17.321985 8.2937002
27.450001 17.321985 8.1842003
27.299999 17.321985 8.1112003
27.15 17.321985 8.0747004
27 17.321985 8.0819998
26.85 17.321985 8.0819998
26.700001 17.321985 8.0382004
26.549999 17.321985 7.9506001
26.4 17.321985 7.9067998
26.25 17.321985 7.9141002
26.1 17.321985 7.8557
25.950001 17.321985 7.79
25.799999 17.321985 7.7462001
25.65 17.321985 7.7389002
25.5 17.321985 7.7680998
25.35 17.321985 7.7827001
25.200001 17.321985 7.7680998
25.049999 17.321985 7.6877999
24.9 17.321985 7.6585999
24.75 17.321985 7.6659002
24.6 17.321985 7.6440001
24.450001 17.321985 7.6513
24.299999 17.321985 7.6367002
24.15 17.321985 7.5198998
24 17.321985 7.4761
23.85 17.321985 7.5272002
23.700001 17.321985 7.6367002
23.549999 17.321985 7.6148
23.4 17.321985 7.5563998
23.25 17.321985 7.4906998
23.1 17.321985 7.4396
22.950001 17.321985 7.4323001
22.799999 17.321985 7.3738999
22.65 17.321985 7.2351999
22.5 17.321985 7.2498002
22.35 17.321985 7.2789998
22.200001 17.321985 7.2863002
22.049999 17.321985 7.2133002
21.9 17.321985 7.2279
21.75 17.321985 7.2351999
21.6 17.321985 7.1987
21.450001 17.321985 7.1402998
21.299999 17.321985 7.0964999
21.15 17.321985 7.0527
21 17.321985 7.0599999
20.85 17.321985 7.0235
20.700001 17.321985 7.0089002
20.549999 17.321985 7.0819001
20.4 17.321985 7.0307999
20.25 17.321985 6.9724002
20.1 17.321985 6.9359002
19.950001 17.321985 6.9797001
19.799999 17.321985 6.9724002
19.65 17.321985 6.9359002
19.5 17.321985 6.9359002
19.35 17.321985 6.9067001
19.200001 17.321985 6.8994002
19.049999 17.321985 6.9359002
18.9 17.321985 6.9359002
18.75 17.321985 6.8994002
18.6 17.321985 6.8337002
18.450001 17.321985 6.8337002
18.299999 17.321985 6.8045001
18.15 17.321985 6.7680001
18 17.321985 6.7972002
17.85 17.321985 6.7315001
17.700001 17.321985 6.6731
17.549999 17.321985 6.6658001
17.4 17.321985 6.6658001
17.25 17.321985 6.6876998
17.1 17.321985 6.7460999
16.950001 17.321985 6.6950002
16.799999 17.321985 6.6511998
16.65 17.321985 6.6146998
16.5 17.321985 6.5563002
16.35 17.321985 6.5198002
16.200001 17.321985 6.5051999
16.049999 17.321985 6.5271001
15.9 17.321985 6.5344
15.75 17.321985 6.5489998
15.6 17.321985 6.5781999
15.45 17.321985 6.4906001
15.3 17.321985 6.4759998
15.15 17.321985 6.4979
15 17.321985 6.4979
14.85 17.321985 6.5271001
14.7 17.321985 6.5416999
14.55 17.321985 6.5051999
14.4 17.321985 6.5124998
14.25 17.321985 6.4906001
14.1 17.321985 6.4394999
13.95 17.321985 6.4249001
13.8 17.321985 6.4322
13.65 17.321985 6.4614
13.5 17.321985 6.4249001
13.35 17.321985 6.3884001
13.2 17.321985 6.3737998
13.05 17.321985 6.4249001
12.9 17.321985 6.4176002
12.75 17.321985 6.3884001
12.6 17.321985 6.3519001
12.45 17.321985 6.3519001
12.3 17.321985 6.3227
12.15 17.321985 6.2934999
12 17.321985 6.3299999
11.85 17.321985 6.3664999
11.7 17.321985 6.3811002
11.55 17.321985 6.3007998
11.4 17.321985 6.3007998
11.25 17.321985 6.2934999
11.1 17.321985 6.2497001
10.95 17.321985 6.2862
10.8 17.321985 6.3007998
10.65 17.321985 6.2789001
10.5 17.321985 6.2642999
10.35 17.321985 6.2424002
10.2 17.321985 6.2424002
10.05 17.321985 6.2862
9.8999996 17.321985 6.2715998
9.75 17.321985 6.2424002
9.6000004 17.321985 6.2205
9.4499998 17.321985 6.1985998
9.3000002 17.321985 6.1767001
9.1499996 17.321985 6.1620998
9 17.321985 6.2132001
8.8500004 17.321985 6.184
8.6999998 17.321985 6.1329002
8.5500002 17.321985 6.1329002
8.3999996 17.321985 6.1183
8.25 17.321985 6.0818
8.1000004 17.321985 6.0453
7.9499998 17.321985 6.0745001
7.8000002 17.321985 6.1037002
7.6500001 17.321985 6.1475
7.5 17.321985 6.0963998
7.3499999 17.321985 6.1110001
7.1999998 17.321985 6.1547999
7.0500002 17.321985 6.0963998
6.9000001 17.321985 6.0598998
6.75 17.321985 6.0307002
6.5999999 17.321985 6.0380001
6.4499998 17.321985 6.0307002
6.3000002 17.321985 6.0233998
6.1500001 17.321985 6.0380001
6 17.321985 6.0380001
5.8499999 17.321985 6.0672002
5.6999998 17.321985 6.1037002
5.5500002 17.321985 6.0598998
5.4000001 17.321985 6.0160999
5.25 17.321985 6.0015001
5.0999999 17.321985 6.0453
4.9499998 17.321985 6.0015001
4.8000002 17.321985 6.0088
4.6500001 17.321985 6.1110001
4.5 17.321985 6.1037002
4.3499999 17.321985 6.0890999
4.1999998 17.321985 6.0890999
4.0500002 17.321985 5.9942002
3.9000001 17.321985 5.9650002
3.75 17.321985 5.9723001
3.5999999 17.321985 6.0233998
3.45 17.321985 6.0088
3.3 17.321985 5.9868999
3.1500001 17.321985 6.0160999
3 17.321985 6.0160999
2.8499999 17.321985 6.0015001
2.7 17.321985 5.9868999
2.55 17.321985 5.9431
2.4000001 17.321985 5.9358001
2.25 17.321985 5.9576998
2.0999999 17.321985 5.9431
1.95 17.321985 5.9431
1.8 17.321985 5.9650002
1.65 17.321985 6.0088
1.5 17.321985 6.0015001
1.35 17.321985 5.9650002
1.2 17.321985 5.8920002
1.05 17.321985 5.8846998
0.89999998 17.321985 5.8920002
0.75 17.321985 5.9285002
0.60000002 17.321985 5.9868999
0.44999999 17.321985 6.0015001
0.30000001 17.321985 5.9723001
0.15000001 17.321985 5.8846998
1.4210855e-14 17.321985 5.9503999
-0.15000001 17.321985 6.0233998
-0.30000001 17.321985 5.9796
-0.44999999 17.321985 5.9723001
-0.60000002 17.321985 5.9650002
-0.75 17.321985 5.9358001
-0.89999998 17.321985 5.9358001
-1.05 17.321985 5.9431
-1.2 17.321985 5.9503999
-1.35 17.321985 5.8846998
-1.5 17.321985 5.8920002
-1.65 17.321985 5.9138999
-1.8 17.321985 5.8920002
-1.95 17.321985 5.9066
-2.0999999 17.321985 5.9211998
-2.25 17.321985 5.9285002
-2.4000001 17.321985 5.9066
-2.55 17.321985 5.8920002
-2.7 17.321985 5.8846998
-2.8499999 17.321985 5.9066
-3 17.321985 5.9211998
-3.1500001 17.321985 5.9211998
-3.3 17.321985 5.9211998
-3.45 17.321985 5.9503999
-3.5999999 17.321985 5.9796
-3.75 17.321985 5.9211998
-3.9000001 17.321985 5.9650002
-4.0500002 17.321985 6.0015001
-4.1999998 17.321985 5.9796
-4.3499999 17.321985 5.9503999
-4.5 17.321985 5.9138999
-4.6500001 17.321985 5.8846998
-4.8000002 17.321985 5.8920002
-4.9499998 17.321985 5.9138999
-5.0999999 17.321985 5.9358001
-5.25 17.321985 5.9576998
-5.4000001 17.321985 5.9503999
-5.5500002 17.321985 5.9358001
-5.6999998 17.321985 5.9503999
-5.8499999 17.321985 5.9576998
-6 17.321985 5.9503999
-6.1500001 17.321985 5.9650002
-6.3000002 17.321985 5.9066
-6.4499998 17.321985 5.8920002
-6.5999999 17.321985 5.9138999
-6.75 17.321985 5.9868999
-6.9000001 17.321985 5.9431
-7.0500002 17.321985 5.8920002
-7.1999998 17.321985 5.8920002
-7.3499999 17.321985 5.8993001
-7.5 17.321985 5.8920002
-7.6500001 17.321985 5.8846998
-7.8000002 17.321985 5.9211998
-7.9499998 17.321985 5.9431
-8.1000004 17.321985 5.9431
-8.25 17.321985 5.9431
-8.3999996 17.321985 5.9503999
-8.5500002 17.321985 5.9723001
-8.6999998 17.321985 5.9650002
-8.8500004 17.321985 5.9723001
-9 17.321985 5.9796
-9.1499996 17.321985 5.9576998
-9.3000002 17.321985 5.9138999
-9.4499998 17.321985 5.8920002
-9.6000004 17.321985 5.8773999
-9.75 17.321985 5.9503999
-9.8999996 17.321985 6.0015001
-10.05 17.321985 6.0307002
-10.2 17.321985 6.0015001
-10.35 17.321985 5.9942002
-10.5 17.321985 6.0015001
-10.65 17.321985 5.9868999
-10.8 17.321985 5.9503999
-10.95 17.321985 5.9358001
-11.1 17.321985 5.9723001
-11.25 17.321985 6.0160999
-11.4 17.321985 6.0307002
-11.55 17.321985 6.0015001
-11.7 17.321985 6.0307002
-11.85 17.321985 6.0307002
-12 17.321985 6.0233998
-12.15 17.321985 6.0818
-12.3 17.321985 6.1110001
-12.45 17.321985 6.1255999
-12.6 17.321985 6.1183
-12.75 17.321985 6.0818
-12.9 17.321985 6.0672002
-13.05 17.321985 6.0890999
-13.2 17.321985 6.1037002
-13.35 17.321985 6.1183
-13.5 17.321985 6.1255999
-13.65 17.321985 6.1110001
-13.8 17.321985 6.1402001
-13.95 17.321985 6.1912999
-14.1 17.321985 6.2350998
-14.25 17.321985 6.1912999
-14.4 17.321985 6.1255999
-14.55 17.321985 6.0818
-14.7 17.321985 6.1255999
-14.85 17.321985 6.1402001
-15 17.321985 6.1037002
-15.15 17.321985 6.1037002
-15.3 17.321985 6.1037002
-15.45 17.321985 6.1110001
-15.6 17.321985 6.1912999
-15.75 17.321985 6.2277999
-15.9 17.321985 6.2350998
-16.049999 17.321985 6.1912999
-16.200001 17.321985 6.1620998
-16.35 17.321985 6.1694002
-16.5 17.321985 6.2424002
-16.65 17.321985 6.1620998
-16.799999 17.321985 6.1547999
-16.950001 17.321985 6.2059002
-17.1 17.321985 6.2205
-17.25 17.321985 6.2350998
-17.4 17.321985 6.2497001
-17.549999 17.321985 6.2715998
-17.700001 17.321985 6.2789001
-17.85 17.321985 6.2715998
-18 17.321985 6.2205
-18.15 17.321985 6.2642999
-18.299999 17.321985 6.2934999
-18.450001 17.321985 6.2934999
-18.6 17.321985 6.2934999
-18.75 17.321985 6.2934999
-18.9 17.321985 6.3081002
-19.049999 17.321985 6.3007998
-19.200001 17.321985 6.3154001
-19.35 17.321985 6.3372998
-19.5 17.321985 6.3519001
-19.65 17.321985 6.3737998
-19.799999 17.321985 6.3957
-19.950001 17.321985 6.3811002
-20.1 17.321985 6.4102998
-20.25 17.321985 6.3957
-20.4 17.321985 6.3227
-20.549999 17.321985 6.3592
-20.700001 17.321985 6.3737998
-20.85 17.321985 6.3664999
-21 17.321985 6.3664999
-21.15 17.321985 6.3664999
-21.299999 17.321985 6.3592
-21.450001 17.321985 6.3592
-21.6 17.321985 6.4029999
-21.75 17.321985 6.4468002
-21.9 17.321985 6.4614
-22.049999 17.321985 6.4614
-22.200001 17.321985 6.4541001
-22.35 17.321985 6.4468002
-22.5 17.321985 6.4468002
-22.65 17.321985 6.4686999
-22.799999 17.321985 6.4906001
-22.950001 17.321985 6.4686999
-23.1 17.321985 6.4759998
-23.25 17.321985 6.5124998
-23.4 17.321985 6.5271001
-23.549999 17.321985 6.5271001
-23.700001 17.321985 6.5344
-23.85 17.321985 6.5854998
-24 17.321985 6.5928001
-24.15 17.321985 6.5928001
-24.299999 17.321985 6.5709
-24.450001 17.321985 6.5781999
-24.6 17.321985 6.5854998
-24.75 17.321985 6.5928001
-24.9 17.321985 6.5781999
-25.049999 17.321985 6.6073999
-25.200001 17.321985 6.6511998
-25.35 17.321985 6.6511998
-25.5 17.321985 6.6438999
-25.65 17.321985 6.6585002
-25.799999 17.321985 6.6803999
-25.950001 17.321985 6.6950002
-26.1 17.321985 6.6950002
-26.25 17.321985 6.6585002
-26.4 17.321985 6.6876998
-26.549999 17.321985 6.6803999
-26.700001 17.321985 6.6438999
-26.85 17.321985 6.6876998
-27 17.321985 6.6950002
-27.15 17.321985 6.6803999
-27.299999 17.321985 6.7096
-27.450001 17.321985 6.7315001
-27.6 17.321985 6.7533998
-27.75 17.321985 6.7680001
-27.9 17.321985 6.7680001
-28.049999 17.321985 6.7533998
-28.200001 17.321985 6.7460999
-28.35 17.321985 6.8555999
-28.5 17.321985 6.9359002
-28.65 17.321985 6.9942999
-28.799999 17.321985 6.9650998
-28.950001 17.321985 6.9212999
-29.1 17.321985 6.8920999
-29.25 17.321985 6.9285998
-29.4 17.321985 6.8702002
-29.549999 17.321985 6.8483
-29.700001 17.321985 6.9212999
-29.85 17.321985 6.9432001
-30 17.321985 6.9505
-30.15 17.321985 6.9432001
-30.299999 17.321985 7.0307999
-30.450001 17.321985 7.0454001
-30.6 17.321985 7.0380998
-30.75 17.321985 7.0819001
-30.9 17.321985 7.1111002
-31.049999 17.321985 7.1037998
-31.200001 17.321985 7.0380998
-31.35 17.321985 7.1402998
-31.5 17.321985 7.1694999
-31.65 17.321985 7.1184001
-31.799999 17.321985 7.1402998
-31.950001 17.321985 7.1329999
-32.099998 17.321985 7.1111002
-32.25 17.321985 7.1476002
-32.400002 17.321985 7.1767998
-32.549999 17.321985 7.1987
-32.700001 17.321985 7.1987
-32.849998 17.321985 7.2424998
-33 17.321985 7.2789998
-33.150002 17.321985 7.2644
-33.299999 17.321985 7.2789998
-33.450001 17.321985 7.3009
-33.599998 17.321985 7.3228002
-33.75 17.321985 7.3228002
-33.900002 17.321985 7.3301001
-34.049999 17.321985 7.3446999
-34.200001 17.321985 7.3081999
-34.349998 17.321985 7.3446999
-34.5 17.321985 7.3738999
-34.650002 17.321985 7.3811998
-34.799999 17.321985 7.4103999
-34.950001 17.321985 7.4103999
-35.099998 17.321985 7.3811998
-35.25 17.321985 7.3811998
-35.400002 17.321985 7.3811998
-35.549999 17.321985 7.3958001
-35.700001 17.321985 7.4396
-35.849998 17.321985 7.4688001
-36 17.321985 7.4906998
-36.150002 17.321985 7.4906998
-36.299999 17.321985 7.5198998
-36.450001 17.321985 7.5345001
-36.599998 17.321985 7.5198998
-36.75 17.321985 7.5710001
-36.900002 17.321985 7.5637002
-37.049999 17.321985 7.5563998
-37.200001 17.321985 7.6220999
-37.349998 17.321985 7.6950998
-37.5 17.321985 7.7315998
-37.650002 17.321985 7.6950998
-37.799999 17.321985 7.7097001
-37.950001 17.321985 7.7462001
-38.099998 17.321985 7.7972999
-38.25 17.321985 7.8045998
-38.400002 17.321985 7.8337998
-38.549999 17.321985 7.8557
-38.700001 17.321985 7.8484001
-38.849998 17.321985 7.8337998
-39 17.321985 7.8411002
-39.150002 17.321985 7.8994999
-39.299999 17.321985 8.0382004
-39.450001 17.321985 8.1112003
-39.599998 17.321985 8.1258001
-39.75 17.321985 8.1039
-39.900002 17.321985 8.0747004
61.5 18.258326 15.1703
61.349998 18.258326 15.2433
61.200001 18.258326 15.2798
61.049999 18.258326 15.2579
60.900002 18.258326 15.2798
60.75 18.258326 15.2652
60.599998 18.258326 15.2579
60.450001 18.258326 15.3309
60.299999 18.258326 15.2871
60.150002 18.258326 15.2506
60 18.258326 15.2579
59.849998 18.258326 15.2944
59.700001 18.258326 15.2798
59.549999 18.258326 15.2214
59.400002 18.258326 15.163
59.25 18.258326 15.1557
59.099998 18.258326 15.1776
58.950001 18.258326 15.2214
58.799999 18.258326 15.1849
58.650002 18.258326 15.1411
58.5 18.258326 15.1484
58.349998 18.258326 15.2141
58.200001 18.258326 15.1703
58.049999 18.258326 15.1119
57.900002 18.258326 15.0827
57.75 18.258326 15.1046
57.599998 18.258326 15.0973
57.450001 18.258326 15.09
57.299999 18.258326 15.0754
57.150002 18.258326 15.0389
57 18.258326 15.0462
56.849998 18.258326 15.0681
56.700001 18.258326 15.0681
56.549999 18.258326 14.9513
56.400002 18.258326 14.9367
56.25 18.258326 14.9732
56.099998 18.258326 14.9659
55.950001 18.258326 14.9367
55.799999 18.258326 14.9148
55.650002 18.258326 14.8929
55.5 18.258326 14.8783
55.349998 18.258326 14.8929
55.200001 18.258326 14.9148
55.049999 18.258326 14.9367
54.900002 18.258326 14.9221
54.75 18.258326 14.9002
54.599998 18.258326 14.8929
54.450001 18.258326 14.8929
54.299999 18.258326 14.871
54.150002 18.258326 14.8418
54 18.258326 14.7761
53.849998 18.258326 14.7761
53.700001 18.258326 14.7688
53.549999 18.258326 14.7761
53.400002 18.258326 14.7907
53.25 18.258326 14.7907
53.099998 18.258326 14.7761
52.950001 18.258326 14.7688
52.799999 18.258326 14.7688
52.650002 18.258326 14.6958
52.5 18.258326 14.6155
52.349998 18.258326 14.6447
52.200001 18.258326 14.652
52.049999 18.258326 14.6593
51.900002 18.258326 14.652
51.75 18.258326 14.6666
51.599998 18.258326 14.652
51.450001 18.258326 14.6082
51.299999 18.258326 14.6082
51.150002 18.258326 14.6082
51 18.258326 14.579
50.849998 18.258326 14.5279
50.700001 18.258326 14.5644
50.549999 18.258326 14.5498
50.400002 18.258326 14.5133
50.25 18.258326 14.4768
50.099998 18.258326 14.506
49.950001 18.258326 14.4987
49.799999 18.258326 14.433
49.650002 18.258326 14.4476
49.5 18.258326 14.4622
49.349998 18.258326 14.4622
49.200001 18.258326 14.3892
49.049999 18.258326 14.4403
48.900002 18.258326 14.433
48.75 18.258326 14.3527
48.599998 18.258326 14.3746
48.450001 18.258326 14.36
48.299999 18.258326 14.3381
48.150002 18.258326 14.3162
48 18.258326 14.3454
47.849998 18.258326 14.3673
47.700001 18.258326 14.3673
47.549999 18.258326 14.3381
47.400002 18.258326 14.3308
47.25 18.258326 14.3089
47.099998 18.258326 14.2213
46.950001 18.258326 14.2213
46.799999 18.258326 14.214
46.650002 18.258326 14.1921
46.5 18.258326 14.2359
46.349998 18.258326 14.2213
46.200001 18.258326 14.1921
46.049999 18.258326 14.1994
45.900002 18.258326 14.2359
45.75 18.258326 14.2213
45.599998 18.258326 14.1556
45.450001 18.258326 14.1556
45.299999 18.258326 14.1483
45.150002 18.258326 14.1483
45 18.258326 14.1629
44.849998 18.258326 14.1556
44.700001 18.258326 14.141
44.549999 18.258326 14.1118
44.400002 18.258326 14.068
44.25 18.258326 14.0607
44.099998 18.258326 14.0607
43.950001 18.258326 14.0388
43.799999 18.258326 14.0388
43.650002 18.258326 14.0169
43.5 18.258326 13.995
43.349998 18.258326 14.0096
43.200001 18.258326 13.9731
43.049999 18.258326 13.9366
42.900002 18.258326 13.9147
42.75 18.258326 13.9293
42.599998 18.258326 13.9512
42.450001 18.258326 13.9585
42.299999 18.258326 13.8782
42.150002 18.258326 13.8636
42 18.258326 13.8782
41.849998 18.258326 13.9147
41.700001 18.258326 13.9074
41.549999 18.258326 13.9147
41.400002 18.258326 13.9293
41.25 18.258326 13.8709
41.099998 18.258326 13.8636
40.950001 18.258326 13.849
40.799999 18.258326 13.7906
40.650002 18.258326 13.8271
40.5 18.258326 13.849
40.349998 18.258326 13.8417
40.200001 18.258326 13.8417
40.049999 18.258326 13.8344
39.900002 18.258326 13.7833
39.75 18.258326 13.6884
39.599998 18.258326 13.6957
39.450001 18.258326 13.6957
39.299999 18.258326 13.6738
39.150002 18.258326 13.6738
39 18.258326 13.6811
38.849998 18.258326 13.6884
38.700001 18.258326 13.7322
38.549999 18.258326 13.7395
38.400002 18.258326 13.7322
38.25 18.258326 13.7395
38.099998 18.258326 13.7322
37.950001 18.258326 13.7322
37.799999 18.258326 13.7322
37.650002 18.258326 13.7103
37.5 18.258326 13.6519
37.349998 18.258326 13.6227
37.200001 18.258326 13.6373
37.049999 18.258326 13.6592
36.900002 18.258326 13.6665
36.75 18.258326 13.6592
36.599998 18.258326 13.63
36.450001 18.258326 13.6957
36.299999 18.258326 13.6884
36.150002 18.258326 13.5789
36 18.258326 13.5643
35.849998 18.258326 13.557
35.700001 18.258326 13.5643
35.549999 18.258326 13.5789
35.400002 18.258326 13.5789
35.25 18.258326 13.5643
35.099998 18.258326 13.5424
34.950001 18.258326 13.5278
34.799999 18.258326 13.5278
34.650002 18.258326 13.5424
34.5 18.258326 13.5424
34.349998 18.258326 13.5497
34.200001 18.258326 13.5497
34.049999 18.258326 13.5205
33.900002 18.258326 13.5205
33.75 18.258326 13.5059
33.599998 18.258326 13.484
33.450001 18.258326 13.4402
33.299999 18.258326 13.4256
33.150002 18.258326 13.4329
33 18.258326 13.4256
32.849998 18.258326 13.4402
32.700001 18.258326 13.4621
32.549999 18.258326 13.4913
32.400002 18.258326 13.4913
32.25 18.258326 13.4621
32.099998 18.258326 13.4402
31.950001 18.258326 13.4986
31.799999 18.258326 13.4548
31.65 18.258326 13.4256
31.5 18.258326 13.4548
31.35 18.258326 13.4767
31.200001 18.258326 13.4694
31.049999 18.258326 13.4183
30.9 18.258326 13.4183
30.75 18.258326 13.411
30.6 18.258326 13.3818
30.450001 18.258326 13.338
30.299999 18.258326 13.338
30.15 18.258326 13.3453
30 18.258326 13.3307
29.85 18.258326 13.3599
29.700001 18.258326 13.3526
29.549999 18.258326 13.3234
29.4 18.258326 13.3307
29.25 18.258326 13.3453
29.1 18.258326 13.3526
28.950001 18.258326 13.3453
28.799999 18.258326 13.3599
28.65 18.258326 13.3599
28.5 18.258326 13.3307
28.35 18.258326 13.2723
28.200001 18.258326 13.2869
28.049999 18.258326 13.3234
27.9 18.258326 13.338
27.75 18.258326 13.3161
27.6 18.258326 13.3015
27.450001 18.258326 13.3161
27.299999 18.258326 13.3161
27.15 18.258326 13.2869
27 18.258326 13.265
26.85 18.258326 13.2431
26.700001 18.258326 13.2285
26.549999 18.258326 13.2212
26.4 18.258326 13.2431
26.25 18.258326 13.1993
26.1 18.258326 13.1774
25.950001 18.258326 13.1701
25.799999 18.258326 13.1774
25.65 18.258326 13.1847
25.5 18.258326 13.1774
25.35 18.258326 13.1847
25.200001 18.258326 13.1993
25.049999 18.258326 13.2139
24.9 18.258326 13.2212
24.75 18.258326 13.2212
24.6 18.258326 13.2066
24.450001 18.258326 13.1993
24.299999 18.258326 13.2139
24.15 18.258326 13.2066
24 18.258326 13.1847
23.85 18.258326 13.1628
23.700001 18.258326 13.1993
23.549999 18.258326 13.1993
23.4 18.258326 13.1847
23.25 18.258326 13.192
23.1 18.258326 13.1993
22.950001 18.258326 13.192
22.799999 18.258326 13.192
22.65 18.258326 13.2139
22.5 18.258326 13.2504
22.35 18.258326 13.2869
22.200001 18.258326 13.2723
22.049999 18.258326 13.2285
21.9 18.258326 13.2066
21.75 18.258326 13.2285
21.6 18.258326 13.2066
21.450001 18.258326 13.1993
21.299999 18.258326 13.2139
21.15 18.258326 13.2358
21 18.258326 13.2504
20.85 18.258326 13.2577
20.700001 18.258326 13.2577
20.549999 18.258326 13.265
20.4 18.258326 13.2942
20.25 18.258326 13.3307
20.1 18.258326 13.2942
19.950001 18.258326 13.2431
19.799999 18.258326 13.192
19.65 18.258326 13.1628
19.5 18.258326 13.1774
19.35 18.258326 13.1993
19.200001 18.258326 13.2066
19.049999 18.258326 13.2212
18.9 18.258326 13.2431
18.75 18.258326 13.2869
18.6 18.258326 13.265
18.450001 18.258326 13.2358
18.299999 18.258326 13.1774
18.15 18.258326 13.0679
18 18.258326 12.973
17.85 18.258326 12.9
17.700001 18.258326 7.9944
17.549999 18.258326 7.9944
17.4 18.258326 7.9724998
17.25 18.258326 7.9579
17.1 18.258326 9.0966997
16.950001 18.258326 10.345
16.799999 18.258326 11.6006
16.65 18.258326 11.0604
16.5 18.258326 7.8849001
16.35 18.258326 7.8776002
16.200001 18.258326 7.9506001
16.049999 18.258326 8.0600996
15.9 18.258326 8.1403999
15.75 18.258326 8.0674
15.6 18.258326 7.9067998
15.45 18.258326 7.8119001
15.3 18.258326 7.79
15.15 18.258326 7.7535
15 18.258326 7.7827001
14.85 18.258326 7.8411002
14.7 18.258326 7.7097001
14.55 18.258326 7.6805
14.4 18.258326 7.6805
14.25 18.258326 7.7097001
14.1 18.258326 7.6585999
13.95 18.258326 7.6367002
13.8 18.258326 7.6513
13.65 18.258326 7.6732001
13.5 18.258326 7.5710001
13.35 18.258326 7.4541998
13.2 18.258326 7.4906998
13.05 18.258326 7.5490999
12.9 18.258326 7.5563998
12.75 18.258326 7.4541998
12.6 18.258326 7.4541998
12.45 18.258326 7.4761
12.3 18.258326 7.5053
12.15 18.258326 7.4176998
12 18.258326 7.3811998
11.85 18.258326 7.3593001
11.7 18.258326 7.2936001
11.55 18.258326 7.3154998
11.4 18.258326 7.2863002
11.25 18.258326 7.1767998
11.1 18.258326 7.2206001
10.95 18.258326 7.2351999
10.8 18.258326 7.2059999
10.65 18.258326 7.1111002
10.5 18.258326 7.1402998
10.35 18.258326 7.1767998
10.2 18.258326 7.1257
10.05 18.258326 7.0819001
9.8999996 18.258326 7.0162001
9.75 18.258326 6.9359002
9.6000004 18.258326 6.9797001
9.4499998 18.258326 7.0307999
9.3000002 18.258326 7.0672998
9.1499996 18.258326 6.9942999
9 18.258326 7.0089002
8.8500004 18.258326 7.0380998
8.6999998 18.258326 7.0454001
8.5500002 18.258326 6.987
8.3999996 18.258326 6.9359002
8.25 18.258326 6.914
8.1000004 18.258326 6.8848
7.9499998 18.258326 6.8920999
7.8000002 18.258326 6.914
7.6500001 18.258326 6.8337002
7.5 18.258326 6.7460999
7.3499999 18.258326 6.7315001
7.1999998 18.258326 6.8190999
7.0500002 18.258326 6.8263998
6.9000001 18.258326 6.7972002
6.75 18.258326 6.7241998
6.5999999 18.258326 6.7533998
6.4499998 18.258326 6.7607002
6.3000002 18.258326 6.7460999
6.1500001 18.258326 6.7168999
6 18.258326 6.6731
5.8499999 18.258326 6.6366
5.6999998 18.258326 6.6293001
5.5500002 18.258326 6.6293001
5.4000001 18.258326 6.6511998
5.25 18.258326 6.6950002
5.0999999 18.258326 6.6585002
4.9499998 18.258326 6.6293001
4.8000002 18.258326 6.6073999
4.6500001 18.258326 6.6073999
4.5 18.258326 6.6146998
4.3499999 18.258326 6.6220002
4.1999998 18.258326 6.6146998
4.0500002 18.258326 6.5636001
3.9000001 18.258326 6.5344
3.75 18.258326 6.5271001
3.5999999 18.258326 6.5854998
3.45 18.258326 6.5854998
3.3 18.258326 6.5344
3.1500001 18.258326 6.5344
3 18.258326 6.5124998
2.8499999 18.258326 6.4833002
2.7 18.258326 6.4614
2.55 18.258326 6.4468002
2.4000001 18.258326 6.4541001
2.25 18.258326 6.5051999
2.0999999 18.258326 6.4686999
1.95 18.258326 6.4468002
1.8 18.258326 6.4614
1.65 18.258326 6.4906001
1.5 18.258326 6.4906001
1.35 18.258326 6.4759998
1.2 18.258326 6.4541001
1.05 18.258326 6.4394999
0.89999998 18.258326 6.4322
0.75 18.258326 6.4322
0.60000002 18.258326 6.4322
0.44999999 18.258326 6.4394999
0.30000001 18.258326 6.4686999
0.15000001 18.258326 6.4249001
1.4210855e-14 18.258326 6.4029999
-0.15000001 18.258326 6.3957
-0.30000001 18.258326 6.3737998
-0.44999999 18.258326 6.3737998
-0.60000002 18.258326 6.3811002
-0.75 18.258326 6.3884001
-0.89999998 18.258326 6.3737998
-1.05 18.258326 6.3446002
-1.2 18.258326 6.3154001
-1.35 18.258326 6.2934999
-1.5 18.258326 6.2934999
-1.65 18.258326 6.3154001
-1.8 18.258326 6.2934999
-1.95 18.258326 6.3081002
-2.0999999 18.258326 6.3299999
-2.25 18.258326 6.3227
-2.4000001 18.258326 6.3081002
-2.55 18.258326 6.2934999
-2.7 18.258326 6.3081002
-2.8499999 18.258326 6.3081002
-3 18.258326 6.3372998
-3.1500001 18.258326 6.3737998
-3.3 18.258326 6.2934999
-3.45 18.258326 6.2789001
-3.5999999 18.258326 6.2934999
-3.75 18.258326 6.2424002
-3.9000001 18.258326 6.2059002
-4.0500002 18.258326 6.2059002
-4.1999998 18.258326 6.257
-4.3499999 18.258326 6.184
-4.5 18.258326 6.1475
-4.6500001 18.258326 6.1620998
-4.8000002 18.258326 6.184
-4.9499998 18.258326 6.1912999
-5.0999999 18.258326 6.2059002
-5.25 18.258326 6.2205
-5.4000001 18.258326 6.2059002
-5.5500002 18.258326 6.1767001
-5.6999998 18.258326 6.184
-5.8499999 18.258326 6.1912999
-6 18.258326 6.184
-6.1500001 18.258326 6.1620998
-6.3000002 18.258326 6.1255999
-6.4499998 18.258326 6.1402001
-6.5999999 18.258326 6.1985998
-6.75 18.258326 6.1985998
-6.9000001 18.258326 6.1620998
-7.0500002 18.258326 6.1183
-7.1999998 18.258326 6.1547999
-7.3499999 18.258326 6.1694002
-7.5 18.258326 6.1985998
-7.6500001 18.258326 6.2424002
-7.8000002 18.258326 6.1985998
-7.9499998 18.258326 6.1767001
-8.1000004 18.258326 6.1912999
-8.25 18.258326 6.1694002
-8.3999996 18.258326 6.1694002
-8.5500002 18.258326 6.1912999
-8.6999998 18.258326 6.2059002
-8.8500004 18.258326 6.1767001
-9 18.258326 6.1329002
-9.1499996 18.258326 6.1110001
-9.3000002 18.258326 6.1255999
-9.4499998 18.258326 6.1475
-9.6000004 18.258326 6.1255999
-9.75 18.258326 6.0672002
-9.8999996 18.258326 6.0672002
-10.05 18.258326 6.1183
-10.2 18.258326 6.1402001
-10.35 18.258326 6.1620998
-10.5 18.258326 6.1767001
-10.65 18.258326 6.1547999
-10.8 18.258326 6.1329002
-10.95 18.258326 6.1255999
-11.1 18.258326 6.1402001
-11.25 18.258326 6.1329002
-11.4 18.258326 6.1329002
-11.55 18.258326 6.1694002
-11.7 18.258326 6.1037002
-11.85 18.258326 6.0745001
-12 18.258326 6.0672002
-12.15 18.258326 6.1037002
-12.3 18.258326 6.1255999
-12.45 18.258326 6.1329002
-12.6 18.258326 6.1183
-12.75 18.258326 6.1912999
-12.9 18.258326 6.1912999
-13.05 18.258326 6.0745001
-13.2 18.258326 6.1037002
-13.35 18.258326 6.1402001
-13.5 18.258326 6.1767001
-13.65 18.258326 6.2059002
-13.8 18.258326 6.1912999
-13.95 18.258326 6.1620998
-14.1 18.258326 6.1620998
-14.25 18.258326 6.1475
-14.4 18.258326 6.1329002
-14.55 18.258326 6.1402001
-14.7 18.258326 6.1475
-14.85 18.258326 6.1402001
-15 18.258326 6.1183
-15.15 18.258326 6.1547999
-15.3 18.258326 6.1547999
-15.45 18.258326 6.1329002
-15.6 18.258326 6.1620998
-15.75 18.258326 6.1985998
-15.9 18.258326 6.2277999
-16.049999 18.258326 6.2205
-16.200001 18.258326 6.1402001
-16.35 18.258326 6.1183
-16.5 18.258326 6.1620998
-16.65 18.258326 6.1912999
-16.799999 18.258326 6.1912999
-16.950001 18.258326 6.1547999
-17.1 18.258326 6.1767001
-17.25 18.258326 6.2132001
-17.4 18.258326 6.2424002
-17.549999 18.258326 6.1912999
-17.700001 18.258326 6.1767001
-17.85 18.258326 6.1912999
-18 18.258326 6.2424002
-18.15 18.258326 6.2642999
-18.299999 18.258326 6.2789001
-18.450001 18.258326 6.2715998
-18.6 18.258326 6.2059002
-18.75 18.258326 6.2205
-18.9 18.258326 6.2789001
-19.049999 18.258326 6.2789001
-19.200001 18.258326 6.2934999
-19.35 18.258326 6.3154001
-19.5 18.258326 6.2862
-19.65 18.258326 6.2934999
-19.799999 18.258326 6.3081002
-19.950001 18.258326 6.2862
-20.1 18.258326 6.3299999
-20.25 18.258326 6.3299999
-20.4 18.258326 6.2715998
-20.549999 18.258326 6.3007998
-20.700001 18.258326 6.3081002
-20.85 18.258326 6.3007998
-21 18.258326 6.3372998
-21.15 18.258326 6.3081002
-21.299999 18.258326 6.257
-21.450001 18.258326 6.2789001
-21.6 18.258326 6.2862
-21.75 18.258326 6.2934999
-21.9 18.258326 6.2789001
-22.049999 18.258326 6.2350998
-22.200001 18.258326 6.2350998
-22.35 18.258326 6.2934999
-22.5 18.258326 6.3227
-22.65 18.258326 6.3154001
-22.799999 18.258326 6.2715998
-22.950001 18.258326 6.3007998
-23.1 18.258326 6.3227
-23.25 18.258326 6.3372998
-23.4 18.258326 6.3227
-23.549999 18.258326 6.3227
-23.700001 18.258326 6.3446002
-23.85 18.258326 6.3811002
-24 18.258326 6.3811002
-24.15 18.258326 6.3664999
-24.299999 18.258326 6.3446002
-24.450001 18.258326 6.3446002
-24.6 18.258326 6.3299999
-24.75 18.258326 6.3081002
-24.9 18.258326 6.3664999
-25.049999 18.258326 6.4029999
-25.200001 18.258326 6.4249001
-25.35 18.258326 6.3811002
-25.5 18.258326 6.3884001
-25.65 18.258326 6.4176002
-25.799999 18.258326 6.4176002
-25.950001 18.258326 6.3884001
-26.1 18.258326 6.3811002
-26.25 18.258326 6.4249001
-26.4 18.258326 6.4249001
-26.549999 18.258326 6.4102998
-26.700001 18.258326 6.4029999
-26.85 18.258326 6.4833002
-27 18.258326 6.4833002
-27.15 18.258326 6.4394999
-27.299999 18.258326 6.4541001
-27.450001 18.258326 6.4541001
-27.6 18.258326 6.4614
-27.75 18.258326 6.5124998
-27.9 18.258326 6.5271001
-28.049999 18.258326 6.5051999
-28.200001 18.258326 6.4541001
-28.35 18.258326 6.5709
-28.5 18.258326 6.6073999
-28.65 18.258326 6.5781999
-28.799999 18.258326 6.5781999
-28.950001 18.258326 6.5781999
-29.1 18.258326 6.5854998
-29.25 18.258326 6.5928001
-29.4 18.258326 6.6001
-29.549999 18.258326 6.5928001
-29.700001 18.258326 6.6001
-29.85 18.258326 6.6073999
-30 18.258326 6.6146998
-30.15 18.258326 6.6220002
-30.299999 18.258326 6.6220002
-30.450001 18.258326 6.6438999
-30.6 18.258326 6.6585002
-30.75 18.258326 6.6585002
-30.9 18.258326 6.6658001
-31.049999 18.258326 6.6803999
-31.200001 18.258326 6.7023001
-31.35 18.258326 6.7096
-31.5 18.258326 6.7168999
-31.65 18.258326 6.7241998
-31.799999 18.258326 6.7680001
-31.950001 18.258326 6.7825999
-32.099998 18.258326 6.7680001
-32.25 18.258326 6.7533998
-32.400002 18.258326 6.7533998
-32.549999 18.258326 6.7607002
-32.700001 18.258326 6.7388
-32.849998 18.258326 6.7680001
-33 18.258326 6.7972002
-33.150002 18.258326 6.7898998
-33.299999 18.258326 6.8410001
-33.450001 18.258326 6.8555999
-33.599998 18.258326 6.8190999
-33.75 18.258326 6.8190999
-33.900002 18.258326 6.8190999
-34.049999 18.258326 6.8337002
-34.200001 18.258326 6.8848
-34.349998 18.258326 6.8848
-34.5 18.258326 6.8848
-34.650002 18.258326 6.9067001
-34.799999 18.258326 6.914
-34.950001 18.258326 6.9067001
-35.099998 18.258326 6.914
-35.25 18.258326 6.914
-35.400002 18.258326 6.914
-35.549999 18.258326 6.914
-35.700001 18.258326 6.9577999
-35.849998 18.258326 7.0089002
-36 18.258326 7.0307999
-36.150002 18.258326 7.0089002
-36.299999 18.258326 7.0380998
-36.450001 18.258326 7.0599999
-36.599998 18.258326 7.0599999
-36.75 18.258326 7.0599999
-36.900002 18.258326 7.0672998
-37.049999 18.258326 7.0746002
-37.200001 18.258326 7.1329999
-37.349998 18.258326 7.1402998
-37.5 18.258326 7.1257
-37.650002 18.258326 7.1402998
-37.799999 18.258326 7.1549001
-37.950001 18.258326 7.1767998
-38.099998 18.258326 7.2206001
-38.25 18.258326 7.1841002
-38.400002 18.258326 7.1914001
-38.549999 18.258326 7.2279
-38.700001 18.258326 7.2279
-38.849998 18.258326 7.2498002
-39 18.258326 7.2716999
-39.150002 18.258326 7.2936001
-39.299999 18.258326 7.2936001
-39.450001 18.258326 7.2863002
-39.599998 18.258326 7.2789998
-39.75 18.258326 7.2644
-39.900002 18.258326 7.2716999
-40.049999 18.258326 7.3009
-40.200001 18.258326 7.3374
-40.349998 18.258326 7.3446999
-40.5 18.258326 7.3374
-40.650002 18.258326 7.3666
-40.799999 18.258326 7.3593001
-40.950001 18.258326 7.3301001
-41.099998 18.258326 7.3081999
-41.25 18.258326 7.3154998
-41.400002 18.258326 7.3666
-41.549999 18.258326 7.4468999
-41.700001 18.258326 7.4396
-41.849998 18.258326 7.4323001
-42 18.258326 7.4468999
-42.150002 18.258326 7.5053
-42.299999 18.258326 7.5125999
-42.450001 18.258326 7.5053
-42.599998 18.258326 7.5125999
-42.75 18.258326 7.5198998
-42.900002 18.258326 7.5272002
-43.049999 18.258326 7.5563998
-43.200001 18.258326 7.5855999
-43.349998 18.258326 7.6148
-43.5 18.258326 7.6367002
-43.650002 18.258326 7.7024002
-43.799999 18.258326 7.7024002
-43.950001 18.258326 7.6877999
-44.099998 18.258326 7.7535
-44.25 18.258326 7.7535
-44.400002 18.258326 7.7462001
-44.549999 18.258326 7.79
-44.700001 18.258326 7.79
-44.849998 18.258326 7.7827001
-45 18.258326 7.7827001
-45.150002 18.258326 7.8119001
-45.299999 18.258326 7.8337998
-45.450001 18.258326 7.8557
-45.599998 18.258326 7.8337998
-45.75 18.258326 7.8411002
-45.900002 18.258326 7.8629999
-46.049999 18.258326 7.8629999
-46.200001 18.258326 7.9214001
-46.349998 18.258326 7.9506001
-46.5 18.258326 7.8922
-46.650002 18.258326 7.8849001
-46.799999 18.258326 7.9067998
-46.950001 18.258326 7.9651999
-47.099998 18.258326 8.0089998
-47.25 18.258326 8.0235996
-47.400002 18.258326 8.0235996
-47.549999 18.258326 8.0235996
-47.700001 18.258326 8.0454998
-47.849998 18.258326 8.0965996
-48 18.258326 8.1623001
-48.150002 18.258326 8.1695995
-48.299999 18.258326 8.1695995
-48.450001 18.258326 8.1842003
-48.599998 18.258326 8.2353001
-48.75 18.258326 8.2791004
-48.900002 18.258326 8.3083
-49.049999 18.258326 8.2644997
-49.200001 18.258326 8.3228998
-49.349998 18.258326 8.3739996
-49.5 18.258326 8.3521004
-49.650002 18.258326 8.3958998
-49.799999 18.258326 8.4104996
-49.950001 18.258326 8.3958998
-50.099998 18.258326 8.4542999
-50.25 18.258326 8.4251003
-50.400002 18.258326 8.3813
-50.549999 18.258326 8.3958998
-50.700001 18.258326 8.4616003
-50.849998 18.258326 8.5346003
-51 18.258326 8.6002998
-51.150002 18.258326 8.5711002
-51.299999 18.258326 8.6148996
61.5 19.194668 15.1922
61.349998 19.194668 15.3163
61.200001 19.194668 15.3893
61.049999 19.194668 15.3236
60.900002 19.194668 15.3163
60.75 19.194668 15.3163
60.599998 19.194668 15.3309
60.450001 19.194668 15.309
60.299999 19.194668 15.2944
60.150002 19.194668 15.2579
60 19.194668 15.2141
59.849998 19.194668 15.2141
59.700001 19.194668 15.2652
59.549999 19.194668 15.2944
59.400002 19.194668 15.2433
59.25 19.194668 15.1484
59.099998 19.194668 15.1192
58.950001 19.194668 15.1265
58.799999 19.194668 15.1338
58.650002 19.194668 15.1484
58.5 19.194668 15.1484
58.349998 19.194668 15.1265
58.200001 19.194668 15.1046
58.049999 19.194668 15.0973
57.900002 19.194668 15.0973
57.75 19.194668 15.0316
57.599998 19.194668 15.0389
57.450001 19.194668 15.0462
57.299999 19.194668 15.0535
57.150002 19.194668 14.9951
57 19.194668 14.9878
56.849998 19.194668 15.0097
56.700001 19.194668 15.0535
56.549999 19.194668 14.9732
56.400002 19.194668 14.9367
56.25 19.194668 14.9513
56.099998 19.194668 14.9951
55.950001 19.194668 15.017
55.799999 19.194668 15.0024
55.650002 19.194668 14.944
55.5 19.194668 14.8564
55.349998 19.194668 14.8053
55.200001 19.194668 14.8053
55.049999 19.194668 14.871
54.900002 19.194668 14.8856
54.75 19.194668 14.8856
54.599998 19.194668 14.8418
54.450001 19.194668 14.798
54.299999 19.194668 14.7761
54.150002 19.194668 14.7688
54 19.194668 14.8126
53.849998 19.194668 14.798
53.700001 19.194668 14.7761
53.549999 19.194668 14.7542
53.400002 19.194668 14.7615
53.25 19.194668 14.7104
53.099998 19.194668 14.6812
52.950001 19.194668 14.725
52.799999 19.194668 14.725
52.650002 19.194668 14.6958
52.5 19.194668 14.6666
52.349998 19.194668 14.6593
52.200001 19.194668 14.6447
52.049999 19.194668 14.6301
51.900002 19.194668 14.6374
51.75 19.194668 14.579
51.599998 19.194668 14.5425
51.450001 19.194668 14.5279
51.299999 19.194668 14.5644
51.150002 19.194668 14.5936
51 19.194668 14.5936
50.849998 19.194668 14.5279
50.700001 19.194668 14.5133
50.549999 19.194668 14.5206
50.400002 19.194668 14.5279
50.25 19.194668 14.4987
50.099998 19.194668 14.4768
49.950001 19.194668 14.4622
49.799999 19.194668 14.4476
49.650002 19.194668 14.4476
49.5 19.194668 14.4476
49.349998 19.194668 14.4549
49.200001 19.194668 14.433
49.049999 19.194668 14.4111
48.900002 19.194668 14.3308
48.75 19.194668 14.2432
48.599998 19.194668 14.3016
48.450001 19.194668 14.3162
48.299999 19.194668 14.3162
48.150002 19.194668 14.3308
48 19.194668 14.3746
47.849998 19.194668 14.3965
47.700001 19.194668 14.4111
47.549999 19.194668 14.3089
47.400002 19.194668 14.287
47.25 19.194668 14.287
47.099998 19.194668 14.2651
46.950001 19.194668 14.2432
46.799999 19.194668 14.2286
46.650002 19.194668 14.2067
46.5 19.194668 14.2067
46.349998 19.194668 14.214
46.200001 19.194668 14.2286
46.049999 19.194668 14.2286
45.900002 19.194668 14.2067
45.75 19.194668 14.1775
45.599998 19.194668 14.141
45.450001 19.194668 14.1483
45.299999 19.194668 14.141
45.150002 19.194668 14.1191
45 19.194668 14.141
44.849998 19.194668 14.1264
44.700001 19.194668 14.1118
44.549999 19.194668 14.1191
44.400002 19.194668 14.0753
44.25 19.194668 14.0461
44.099998 19.194668 14.0315
43.950001 19.194668 14.0096
43.799999 19.194668 14.0534
43.650002 19.194668 14.0534
43.5 19.194668 13.995
43.349998 19.194668 13.9512
43.200001 19.194668 13.9658
43.049999 19.194668 13.9877
42.900002 19.194668 13.9658
42.75 19.194668 13.9731
42.599998 19.194668 13.9804
42.450001 19.194668 13.9804
42.299999 19.194668 13.8928
42.150002 19.194668 13.8563
42 19.194668 13.8344
41.849998 19.194668 13.8198
41.700001 19.194668 13.8271
41.549999 19.194668 13.8563
41.400002 19.194668 13.9001
41.25 19.194668 13.8782
41.099998 19.194668 13.8417
40.950001 19.194668 13.8198
40.799999 19.194668 13.8344
40.650002 19.194668 13.8052
40.5 19.194668 13.7906
40.349998 19.194668 13.776
40.200001 19.194668 13.7541
40.049999 19.194668 13.7833
39.900002 19.194668 13.8271
39.75 19.194668 13.8198
39.599998 19.194668 13.776
39.450001 19.194668 13.7541
39.299999 19.194668 13.7687
39.150002 19.194668 13.776
39 19.194668 13.776
38.849998 19.194668 13.7687
38.700001 19.194668 13.7541
38.549999 19.194668 13.7468
38.400002 19.194668 13.7614
38.25 19.194668 13.7833
38.099998 19.194668 13.7395
37.950001 19.194668 13.7322
37.799999 19.194668 13.7322
37.650002 19.194668 13.6884
37.5 19.194668 13.6665
37.349998 19.194668 13.6592
37.200001 19.194668 13.6884
37.049999 19.194668 13.703
36.900002 19.194668 13.6738
36.75 19.194668 13.63
36.599998 19.194668 13.6008
36.450001 19.194668 13.6227
36.299999 19.194668 13.6227
36.150002 19.194668 13.5716
36 19.194668 13.5935
35.849998 19.194668 13.6081
35.700001 19.194668 13.6008
35.549999 19.194668 13.5132
35.400002 19.194668 13.5862
35.25 19.194668 13.6373
35.099998 19.194668 13.6154
34.950001 19.194668 13.5497
34.799999 19.194668 13.5205
34.650002 19.194668 13.5278
34.5 19.194668 13.5205
34.349998 19.194668 13.4913
34.200001 19.194668 13.4694
34.049999 19.194668 13.4913
33.900002 19.194668 13.4913
33.75 19.194668 13.4986
33.599998 19.194668 13.4913
33.450001 19.194668 13.5205
33.299999 19.194668 13.5059
33.150002 19.194668 13.4767
33 19.194668 13.4767
32.849998 19.194668 13.4694
32.700001 19.194668 13.4621
32.549999 19.194668 13.4548
32.400002 19.194668 13.4548
32.25 19.194668 13.4402
32.099998 19.194668 13.4329
31.950001 19.194668 13.4694
31.799999 19.194668 13.4767
31.65 19.194668 13.4767
31.5 19.194668 13.484
31.35 19.194668 13.4694
31.200001 19.194668 13.4329
31.049999 19.194668 13.3891
30.9 19.194668 13.411
30.75 19.194668 13.4256
30.6 19.194668 13.4256
30.450001 19.194668 13.3818
30.299999 19.194668 13.3818
30.15 19.194668 13.3672
30 19.194668 13.3161
29.85 19.194668 13.3307
29.700001 19.194668 13.3526
29.549999 19.194668 13.3818
29.4 19.194668 13.3672
29.25 19.194668 13.3599
29.1 19.194668 13.3672
28.950001 19.194668 13.3818
28.799999 19.194668 13.3745
28.65 19.194668 13.3526
28.5 19.194668 13.3234
28.35 19.194668 13.3745
28.200001 19.194668 13.3672
28.049999 19.194668 13.338
27.9 19.194668 13.338
27.75 19.194668 13.3307
27.6 19.194668 13.3307
27.450001 19.194668 13.3526
27.299999 19.194668 13.3599
27.15 19.194668 13.338
27 19.194668 13.3015
26.85 19.194668 13.3015
26.700001 19.194668 13.3307
26.549999 19.194668 13.3307
26.4 19.194668 13.265
26.25 19.194668 13.2869
26.1 19.194668 13.3015
25.950001 19.194668 13.2869
25.799999 19.194668 13.2431
25.65 19.194668 13.2504
25.5 19.194668 13.2723
25.35 19.194668 13.2577
25.200001 19.194668 13.265
25.049999 19.194668 13.2723
24.9 19.194668 13.2723
24.75 19.194668 13.265
24.6 19.194668 13.2577
24.450001 19.194668 13.2577
24.299999 19.194668 13.2431
24.15 19.194668 13.2285
24 19.194668 13.2285
23.85 19.194668 13.2504
23.700001 19.194668 13.2723
23.549999 19.194668 13.2431
23.4 19.194668 13.192
23.25 19.194668 13.2139
23.1 19.194668 13.2285
22.950001 19.194668 13.2285
22.799999 19.194668 13.1993
22.65 19.194668 13.1774
22.5 19.194668 13.1701
22.35 19.194668 13.1774
22.200001 19.194668 13.2504
22.049999 19.194668 13.192
21.9 19.194668 13.1409
21.75 19.194668 13.1482
21.6 19.194668 13.1628
21.450001 19.194668 13.192
21.299999 19.194668 13.2139
21.15 19.194668 13.192
21 19.194668 13.1847
20.85 19.194668 13.1847
20.700001 19.194668 13.1628
20.549999 19.194668 13.1774
20.4 19.194668 13.1993
20.25 19.194668 13.1847
20.1 19.194668 13.1774
19.950001 19.194668 13.1628
19.799999 19.194668 13.1482
19.65 19.194668 13.1701
19.5 19.194668 13.1628
19.35 19.194668 13.1482
19.200001 19.194668 13.1701
19.049999 19.194668 13.1555
18.9 19.194668 13.1336
18.75 19.194668 13.119
18.6 19.194668 13.119
18.450001 19.194668 13.1117
18.299999 19.194668 13.119
18.15 19.194668 13.1336
18 19.194668 13.1409
17.85 19.194668 13.1336
17.700001 19.194668 13.119
17.549999 19.194668 13.0752
17.4 19.194668 13.0606
17.25 19.194668 13.0752
17.1 19.194668 13.1336
16.950001 19.194668 13.1409
16.799999 19.194668 13.1117
16.65 19.194668 13.0825
16.5 19.194668 13.0606
16.35 19.194668 13.0387
16.200001 19.194668 13.0168
16.049999 19.194668 13.0752
15.9 19.194668 13.0971
15.75 19.194668 13.0825
15.6 19.194668 13.0825
15.45 19.194668 13.1044
15.3 19.194668 13.1117
15.15 19.194668 13.0679
15 19.194668 13.0752
14.85 19.194668 13.0679
14.7 19.194668 13.0387
14.55 19.194668 13.0387
14.4 19.194668 13.046
14.25 19.194668 13.0387
14.1 19.194668 13.0387
